# .PCD v0.7 - Point Cloud Data file format
VERSION 0.7
FIELDS x y z rgb
SIZE 4 4 4 4
TYPE F F F U
COUNT 1 1 1 1
WIDTH 1077
HEIGHT 1
VIEWPOINT 0 0 0 1 0 0 0
POINTS 1077
DATA ascii
0.031174786 -0.0088645443 0.17500001 4268328
0.007643952 -0.008409231 0.18300001 1974043
0.0084580295 -0.0083632786 0.18200001 2104602
0.0092627024 -0.0083173262 0.18100001 2431771
0.01005797 -0.0082713747 0.18000001 3023908
0.010904414 -0.0082713747 0.18000001 5128000
0.011750856 -0.0082713747 0.18000001 5455680
0.012527314 -0.0082254224 0.17900001 5519930
0.013369055 -0.0082254224 0.17900001 5453883
0.014210797 -0.0082254224 0.17900001 6309194
0.014968444 -0.00817947 0.178 6506058
0.015805483 -0.00817947 0.178 6504259
0.01664252 -0.00817947 0.178 7424847
0.017479559 -0.00817947 0.178 9793655
0.018316597 -0.00817947 0.178 13215661
0.019046031 -0.0081335176 0.177 14073285
0.019878367 -0.0081335176 0.177 14862801
0.020710703 -0.0081335176 0.177 14069940
0.021543037 -0.0081335176 0.177 16762060
0.022375373 -0.0081335176 0.177 16767970
0.023207709 -0.0081335176 0.177 16766684
0.024040045 -0.0081335176 0.177 15182509
0.024731861 -0.0080875661 0.17600001 15181226
0.025559494 -0.0080875661 0.17600001 13538200
0.026387125 -0.0080875661 0.17600001 16502483
0.02721476 -0.0080875661 0.17600001 16503514
0.028042393 -0.0080875661 0.17600001 16634332
0.028870028 -0.0080875661 0.17600001 13473440
0.02969766 -0.0080875661 0.17600001 14524327
0.030351855 -0.0080416137 0.17500001 13669272
0.030996645 -0.0079956623 0.17400001 12881553
0.031814869 -0.0079956623 0.17400001 12027791
0.0326331 -0.0079956623 0.17400001 9597058
0.033451326 -0.0079956623 0.17400001 6182261
0.034269556 -0.0079956623 0.17400001 2900068
0.035087787 -0.0079956623 0.17400001 1721958
0.035906013 -0.0079956623 0.17400001 1394792
0.0025348703 -0.0077136783 0.18700001 2237734
0.0033777144 -0.0076311789 0.185 2236964
0.0042247097 -0.0075899297 0.18400002 2169629
0.0050623002 -0.0075486801 0.18300001 2431518
0.0059875813 -0.0076311789 0.185 3549999
0.0067463336 -0.0075074304 0.18200001 4996931
0.0075604115 -0.0074661807 0.18100001 5917514
0.0084115565 -0.0074661807 0.18100001 5718593
0.0092115272 -0.007424931 0.18000001 6046274
0.01005797 -0.007424931 0.18000001 6307909
0.010904414 -0.007424931 0.18000001 6374472
0.011750856 -0.007424931 0.18000001 6702416
0.012527314 -0.0073836814 0.17900001 8082010
0.013369055 -0.0073836814 0.17900001 8213080
0.014210797 -0.0073836814 0.17900001 11107972
0.014968444 -0.0073424312 0.178 14067374
0.015805483 -0.0073424312 0.178 15447228
0.01664252 -0.0073424312 0.178 14920369
0.017479559 -0.0073424312 0.178 14066860
0.018316597 -0.0073424312 0.178 16768229
0.019046031 -0.0073011816 0.177 16775675
0.019878367 -0.0073011816 0.177 16775931
0.020710703 -0.0073011816 0.177 14134196
0.021543037 -0.0073011816 0.177 16497606
0.022375373 -0.0073011816 0.177 16761547
0.023207709 -0.0073011816 0.177 16765401
0.024040045 -0.0073011816 0.177 16763081
0.024731861 -0.0072599328 0.17600001 16763339
0.025559494 -0.0072599328 0.17600001 16764112
0.026387125 -0.0072599328 0.17600001 16767202
0.02721476 -0.0072599328 0.17600001 16765918
0.028042393 -0.0072599328 0.17600001 16766945
0.028870028 -0.0072599328 0.17600001 13932706
0.02969766 -0.0072599328 0.17600001 14852779
0.030351855 -0.0072186831 0.17500001 14391458
0.030996645 -0.0071774335 0.17400001 14983595
0.031814869 -0.0071774335 0.17400001 15312560
0.0326331 -0.0071774335 0.17400001 14984878
0.033451326 -0.0071774335 0.17400001 13605796
0.034269556 -0.0071774335 0.17400001 12358304
0.035087787 -0.0071774335 0.17400001 9599888
0.035906013 -0.0071774335 0.17400001 4279915
-0.0009878258 -0.0068708654 0.18800001 2236962
-0.00010265913 -0.006797771 0.186 2499877
0.00077199872 -0.006797771 0.186 2498847
0.0016378037 -0.0067612235 0.185 2629663
0.0024942039 -0.006724677 0.18400002 4075312
0.0033594568 -0.006724677 0.18400002 5652548
0.0042017493 -0.0066881296 0.18300001 5980227
0.0050346372 -0.0066515827 0.18200001 6111813
0.0058904854 -0.0066515827 0.18200001 6110530
0.0067463336 -0.0066515827 0.18200001 7359314
0.0075604115 -0.0066150352 0.18100001 7753810
0.0084115565 -0.0066150352 0.18100001 7883598
0.0092115272 -0.0065784878 0.18000001 7949906
0.01005797 -0.0065784878 0.18000001 10977415
0.010904414 -0.0065784878 0.18000001 16635876
0.011750856 -0.0065784878 0.18000001 16767976
0.012527314 -0.0065419408 0.17900001 12949671
0.013369055 -0.0065419408 0.17900001 13080744
0.014210797 -0.0065419408 0.17900001 13737382
0.014968444 -0.0065053934 0.178 14590636
0.015805483 -0.0065053934 0.178 16103363
0.01664252 -0.0065053934 0.178 16037057
0.017479559 -0.0065053934 0.178 14523046
0.018316597 -0.0065053934 0.178 15579845
0.019046031 -0.0064688465 0.177 16770543
0.019878367 -0.0064688465 0.177 16774399
0.020710703 -0.0064688465 0.177 13802921
0.021543037 -0.0064688465 0.177 13930909
0.022375373 -0.0064688465 0.177 13732245
0.023207709 -0.0064688465 0.177 13008522
0.024040045 -0.0064688465 0.177 13141132
0.024731861 -0.0064322995 0.17600001 12417922
0.025559494 -0.0064322995 0.17600001 12156295
0.026387125 -0.0064322995 0.17600001 16040398
0.02721476 -0.0064322995 0.17600001 16634332
0.028042393 -0.0064322995 0.17600001 16768228
0.028870028 -0.0064322995 0.17600001 13143960
0.02969766 -0.0064322995 0.17600001 13669534
0.030351855 -0.0063957525 0.17500001 14129571
0.030996645 -0.0063592051 0.17400001 15115951
0.031814869 -0.0063592051 0.17400001 15444146
0.0326331 -0.0063592051 0.17400001 15444400
0.033451326 -0.0063592051 0.17400001 13931931
0.034269556 -0.0063592051 0.17400001 14327202
0.035087787 -0.0063592051 0.17400001 14066347
0.035906013 -0.0063592051 0.17400001 11636641
-0.0018420181 -0.0058912677 0.185 2628897
-0.00097206264 -0.0058912677 0.185 3810855
-0.0001021072 -0.0058912677 0.185 5586493
0.00076784822 -0.0058912677 0.185 5849665
0.0016289508 -0.0058594234 0.18400002 6046020
0.0024942039 -0.0058594234 0.18400002 6635845
0.0033594568 -0.0058594234 0.18400002 6897988
0.004178789 -0.005795734 0.18200001 7817289
0.0050346372 -0.005795734 0.18200001 8805467
0.0058904854 -0.005795734 0.18200001 10188149
0.0067463336 -0.005795734 0.18200001 11438220
0.0075604115 -0.0057638893 0.18100001 11503500
0.0084115565 -0.0057638893 0.18100001 13672100
0.0092115272 -0.0057320446 0.18000001 15246767
0.01005797 -0.0057320446 0.18000001 15843785
0.010904414 -0.0057320446 0.18000001 16774649
0.011750856 -0.0057320446 0.18000001 16773625
0.012527314 -0.0057001999 0.17900001 13344429
0.013369055 -0.0057001999 0.17900001 13471391
0.014210797 -0.0057001999 0.17900001 13076372
0.014968444 -0.0056683552 0.178 15115701
0.015805483 -0.0056683552 0.178 14852529
0.01664252 -0.0056683552 0.178 15313334
0.017479559 -0.0056683552 0.178 15048877
0.018316597 -0.0056683552 0.178 13734813
0.019046031 -0.0056365104 0.177 16766429
0.019878367 -0.0056365104 0.177 16767972
0.020710703 -0.0056365104 0.177 15116464
0.021543037 -0.0056365104 0.177 12944266
0.022375373 -0.0056365104 0.177 13404304
0.023207709 -0.0056365104 0.177 13075085
0.024040045 -0.0056365104 0.177 13667222
0.024731861 -0.0056046662 0.17600001 12614788
0.025559494 -0.0056046662 0.17600001 12679811
0.026387125 -0.0056046662 0.17600001 15510711
0.02721476 -0.0056046662 0.17600001 16765143
0.028042393 -0.0056046662 0.17600001 16767452
0.028870028 -0.0056046662 0.17600001 14262175
0.02969766 -0.0056046662 0.17600001 13801624
0.030351855 -0.005572821 0.17500001 13340305
0.030996645 -0.0055409763 0.17400001 13735065
0.031814869 -0.0055409763 0.17400001 13603225
0.0326331 -0.0055409763 0.17400001 14195362
0.033451326 -0.0055409763 0.17400001 12549508
0.034269556 -0.0055409763 0.17400001 13075852
0.035087787 -0.0055409763 0.17400001 13209235
0.035906013 -0.0055409763 0.17400001 13605022
-0.0089443922 -0.0051027397 0.18800001 2040355
-0.0080174543 -0.0050755972 0.18700001 1974560
-0.0071380944 -0.0050755972 0.18700001 2040353
-0.0062587336 -0.0050755972 0.18700001 2039583
-0.0053506065 -0.0050484552 0.186 2168859
-0.0044278204 -0.0049941707 0.18400002 2693406
-0.0035625673 -0.0049941707 0.18400002 4402741
-0.0026973144 -0.0049941707 0.18400002 5519676
-0.0018320613 -0.0049941707 0.18400002 5912120
-0.00096680829 -0.0049941707 0.18400002 7620941
-0.00010155528 -0.0049941707 0.18400002 9002592
0.00076369772 -0.0049941707 0.18400002 10317169
0.0016289508 -0.0049941707 0.18400002 10843513
0.0024942039 -0.0049941707 0.18400002 10908794
0.0033411989 -0.0049670287 0.18300001 12158350
0.004178789 -0.0049398863 0.18200001 14393255
0.0050346372 -0.0049398863 0.18200001 13539222
0.0058904854 -0.0049398863 0.18200001 16772585
0.0067092655 -0.0049127438 0.18100001 16768482
0.0075604115 -0.0049127438 0.18100001 12816541
0.0084115565 -0.0049127438 0.18100001 12551053
0.0092115272 -0.0048856018 0.18000001 14258591
0.01005797 -0.0048856018 0.18000001 13540516
0.010904414 -0.0048856018 0.18000001 16774910
0.011750856 -0.0048856018 0.18000001 16774654
0.012527314 -0.0048584593 0.17900001 13738674
0.013369055 -0.0048584593 0.17900001 15507888
0.014210797 -0.0048584593 0.17900001 16034230
0.014968444 -0.0048313169 0.178 13339540
0.015805483 -0.0048313169 0.178 14326950
0.01664252 -0.0048313169 0.178 13601944
0.017479559 -0.0048313169 0.178 12417670
0.018316597 -0.0048313169 0.178 12285569
0.019046031 -0.0048041749 0.177 16760002
0.019878367 -0.0048041749 0.177 16169145
0.020710703 -0.0048041749 0.177 11562865
0.021543037 -0.0048041749 0.177 11957623
0.022375373 -0.0048041749 0.177 13074821
0.023207709 -0.0048041749 0.177 12153719
0.024040045 -0.0048041749 0.177 11496305
0.024731861 -0.0047770329 0.17600001 11759477
0.025559494 -0.0047770329 0.17600001 11363949
0.026387125 -0.0047770329 0.17600001 11560812
0.02721476 -0.0047770329 0.17600001 12088696
0.028042393 -0.0047770329 0.17600001 11628656
0.028870028 -0.0047770329 0.17600001 12153969
0.02969766 -0.0047770329 0.17600001 11627625
0.030351855 -0.0047498904 0.17500001 12087922
0.030996645 -0.0047227484 0.17400001 11627373
0.031814869 -0.0047227484 0.17400001 11628143
0.0326331 -0.0047227484 0.17400001 11957110
0.033451326 -0.0047227484 0.17400001 12483200
0.034269556 -0.0047227484 0.17400001 11891576
0.035087787 -0.0047227484 0.17400001 12483715
0.035906013 -0.0047227484 0.17400001 12945549
0.036935303 -0.0047498904 0.17500001 12882584
-0.0088968156 -0.0041962368 0.18700001 2171171
-0.0079317065 -0.0041513573 0.185 2367523
-0.0070235799 -0.0041289176 0.18400002 2562592
-0.0061583263 -0.0041289176 0.18400002 3940393
-0.0052930736 -0.0041289176 0.18400002 5781567
-0.0044278204 -0.0041289176 0.18400002 7886943
-0.0035432056 -0.0041064778 0.18300001 11110798
-0.0026826551 -0.0041064778 0.18300001 12293014
-0.0018320613 -0.0041289176 0.18400002 12422285
-0.00096680829 -0.0041289176 0.18400002 12880268
-0.00010100334 -0.0041064778 0.18300001 11761535
0.00076369772 -0.0041289176 0.18400002 12484233
0.0016200979 -0.0041064778 0.18300001 11631234
0.0024806485 -0.0041064778 0.18300001 16502483
0.003322941 -0.0040840381 0.18200001 15911631
0.004178789 -0.0040840381 0.18200001 16768748
0.0050069741 -0.0040615983 0.18100001 16767200
0.00585812 -0.0040615983 0.18100001 16770282
0.0067092655 -0.0040615983 0.18100001 16370398
0.0075604115 -0.0040615983 0.18100001 16769787
0.0084115565 -0.0040615983 0.18100001 16630739
0.0092115272 -0.0040391586 0.18000001 14721706
0.01005797 -0.0040391586 0.18000001 13341337
0.010904414 -0.0040391586 0.18000001 16770797
0.011750856 -0.0040391586 0.18000001 16774143
0.012527314 -0.0040167188 0.17900001 16764631
0.013369055 -0.0040167188 0.17900001 13271948
0.014210797 -0.0040167188 0.17900001 13600911
0.014968444 -0.0039942791 0.178 13009544
0.015805483 -0.0039942791 0.178 13009546
0.01664252 -0.0039942791 0.178 13206153
0.017479559 -0.0039942791 0.178 11957110
0.018316597 -0.0039942791 0.178 11693938
0.019153636 -0.0039942791 0.178 10969443
0.019990673 -0.0039942791 0.178 11429994
0.020827712 -0.0039942791 0.178 11366767
0.021543037 -0.0039718389 0.177 11760242
0.022375373 -0.0039718389 0.177 12089207
0.023207709 -0.0039718389 0.177 11562863
0.024040045 -0.0039718389 0.177 11892600
0.024731861 -0.0039493996 0.17600001 10576486
0.025559494 -0.0039493996 0.17600001 11102314
0.026387125 -0.0039493996 0.17600001 11102314
0.02721476 -0.0039493996 0.17600001 10512490
0.028042393 -0.0039493996 0.17600001 10906732
0.028870028 -0.0039493996 0.17600001 11957873
0.02969766 -0.0039493996 0.17600001 12087406
0.030351855 -0.0039269598 0.17500001 10968414
0.030996645 -0.0039045198 0.17400001 11231840
0.031814869 -0.0039045198 0.17400001 11560805
0.0326331 -0.0039045198 0.17400001 11823977
0.033451326 -0.0039045198 0.17400001 11955566
0.034269556 -0.0039045198 0.17400001 12416891
0.035087787 -0.0039045198 0.17400001 12285821
0.035906013 -0.0039045198 0.17400001 12352897
0.036935303 -0.0039269598 0.17500001 11235191
0.039903942 -0.0040615983 0.18100001 2037025
0.040980257 -0.0040840381 0.18200001 1251874
-0.012414256 -0.0033168765 0.18700001 2106148
-0.011534896 -0.0033168765 0.18700001 2236964
-0.010655536 -0.0033168765 0.18700001 2694690
-0.0097238962 -0.0032991392 0.186 2823709
-0.0088016624 -0.0032814017 0.185 3742754
-0.0078888331 -0.0032636647 0.18400002 6702154
-0.0070235799 -0.0032636647 0.18400002 10517118
-0.0061583263 -0.0032636647 0.18400002 11897486
-0.0052930736 -0.0032636647 0.18400002 12423830
-0.0044278204 -0.0032636647 0.18400002 11634314
-0.0035432056 -0.0032459274 0.18300001 12489621
-0.0026826551 -0.0032459274 0.18300001 12093320
-0.0018221044 -0.0032459274 0.18300001 13078419
-0.00096680829 -0.0032636647 0.18400002 13340307
-0.00010100334 -0.0032459274 0.18300001 13932192
0.00075954717 -0.0032459274 0.18300001 15116466
0.0016112449 -0.0032281901 0.18200001 12946581
0.0024670931 -0.0032281901 0.18200001 16771057
0.003322941 -0.0032281901 0.18200001 16771831
0.004178789 -0.0032281901 0.18200001 16769003
0.0050069741 -0.0032104526 0.18100001 16768235
0.00585812 -0.0032104526 0.18100001 11894156
0.0067092655 -0.0032104526 0.18100001 13473188
0.0075604115 -0.0032104526 0.18100001 12552607
0.0084115565 -0.0032104526 0.18100001 12353422
0.0092115272 -0.0031927153 0.18000001 12484746
0.01005797 -0.0031927153 0.18000001 11958400
0.010904414 -0.0031927153 0.18000001 14788783
0.011750856 -0.0031927153 0.18000001 12353672
0.012527314 -0.0031749781 0.17900001 10970476
0.013369055 -0.0031749781 0.17900001 11364719
0.014210797 -0.0031749781 0.17900001 10575203
0.015052537 -0.0031749781 0.17900001 9129040
0.015894277 -0.0031749781 0.17900001 9984349
0.016736018 -0.0031749781 0.17900001 10050396
0.01757776 -0.0031749781 0.17900001 9458768
0.018316597 -0.0031572406 0.178 10184290
0.019153636 -0.0031572406 0.178 10119015
0.019990673 -0.0031572406 0.178 10053735
0.020827712 -0.0031572406 0.178 5385776
0.02166475 -0.0031572406 0.178 3871762
0.022375373 -0.0031395033 0.177 3936785
0.023207709 -0.0031395033 0.177 3673613
0.024040045 -0.0031395033 0.177 3607820
0.024731861 -0.0031217663 0.17600001 3870738
0.025559494 -0.0031217663 0.17600001 3739154
0.026387125 -0.0031217663 0.17600001 5124405
0.02721476 -0.0031217663 0.17600001 6375757
0.028042393 -0.0031217663 0.17600001 9200741
0.028870028 -0.0031217663 0.17600001 10318445
0.029528923 -0.003104029 0.17500001 9396573
0.030351855 -0.003104029 0.17500001 9328468
0.030996645 -0.0030862915 0.17400001 10114904
0.031814869 -0.0030862915 0.17400001 10837339
0.0326331 -0.0030862915 0.17400001 11560805
0.033451326 -0.0030862915 0.17400001 11166047
0.034269556 -0.0030862915 0.17400001 12087152
0.035087787 -0.0030862915 0.17400001 12286073
0.035906013 -0.0030862915 0.17400001 12484485
0.036935303 -0.003104029 0.17500001 12287879
0.037758235 -0.003104029 0.17500001 12619412
0.039903942 -0.0032104526 0.18100001 2034193
0.040304758 -0.0031749781 0.17900001 1710622
0.041376367 -0.0031927153 0.18000001 1974562
-0.013151439 -0.0024114463 0.185 2434343
-0.012281483 -0.0024114463 0.185 2562592
-0.011411528 -0.0024114463 0.185 3020061
-0.010541573 -0.0024114463 0.185 6241605
-0.0096716173 -0.0024114463 0.185 10845570
-0.0088016624 -0.0024114463 0.185 12357785
-0.0078888331 -0.0023984117 0.18400002 12751514
-0.0070235799 -0.0023984117 0.18400002 12685205
-0.0061583263 -0.0023984117 0.18400002 12356240
-0.0052930736 -0.0023984117 0.18400002 15711683
-0.0044278204 -0.0023984117 0.18400002 15844551
-0.0035432056 -0.0023853767 0.18300001 15843521
-0.0026826551 -0.0023853767 0.18300001 12946833
-0.0018221044 -0.0023853767 0.18300001 13407384
-0.00096155389 -0.0023853767 0.18300001 13275028
-0.00010100334 -0.0023853767 0.18300001 13141645
0.00075954717 -0.0023853767 0.18300001 11891324
0.0016112449 -0.0023723419 0.18200001 11103607
0.0024670931 -0.0023723419 0.18200001 16765657
0.003322941 -0.0023723419 0.18200001 16569309
0.004178789 -0.0023723419 0.18200001 16765918
0.0050069741 -0.0023593071 0.18100001 16696784
0.00585812 -0.0023593071 0.18100001 12285569
0.0067092655 -0.0023593071 0.18100001 12087672
0.0075604115 -0.0023593071 0.18100001 12287106
0.0084115565 -0.0023593071 0.18100001 11827068
0.0092115272 -0.0023462721 0.18000001 11366515
0.01005797 -0.0023462721 0.18000001 11761527
0.010904414 -0.0023462721 0.18000001 10380134
0.011750856 -0.0023462721 0.18000001 8211020
0.012597299 -0.0023462721 0.18000001 8867665
0.013443743 -0.0023462721 0.18000001 9131604
0.014210797 -0.0023332373 0.17900001 9067872
0.015052537 -0.0023332373 0.17900001 8149600
0.015894277 -0.0023332373 0.17900001 6635845
0.016736018 -0.0023332373 0.17900001 4463645
0.01757776 -0.0023332373 0.17900001 3872789
0.018419499 -0.0023332373 0.17900001 2692628
0.019261241 -0.0023332373 0.17900001 2497050
0.020102981 -0.0023332373 0.17900001 2234392
0.020944722 -0.0023332373 0.17900001 2236188
0.02166475 -0.0023202023 0.178 2170395
0.022501787 -0.0023202023 0.178 2235675
0.023207709 -0.0023071675 0.177 2169882
0.024040045 -0.0023071675 0.177 2169880
0.024731861 -0.002294133 0.17600001 2235673
0.025559494 -0.002294133 0.17600001 2301466
0.026387125 -0.002294133 0.17600001 2169880
0.02721476 -0.002294133 0.17600001 2301466
0.027883062 -0.0022810979 0.17500001 2234390
0.028705992 -0.0022810979 0.17500001 2430485
0.029528923 -0.0022810979 0.17500001 2889492
0.030351855 -0.0022810979 0.17500001 6964292
0.030996645 -0.0022680631 0.17400001 8342086
0.031814869 -0.0022680631 0.17400001 10378328
0.0326331 -0.0022680631 0.17400001 12416371
0.033451326 -0.0022680631 0.17400001 12679543
0.034269556 -0.0022680631 0.17400001 12152942
0.035087787 -0.0022680631 0.17400001 12220282
0.035906013 -0.0022680631 0.17400001 12681864
0.036935303 -0.0022810979 0.17500001 12222086
0.037973996 -0.002294133 0.17600001 12093582
0.039463017 -0.0023332373 0.17900001 3284260
0.04007959 -0.0023202023 0.178 1973533
0.040916629 -0.0023202023 0.178 1052688
0.041753668 -0.0023202023 0.178 1119251
-0.013945605 -0.0015331586 0.18400002 3020579
-0.013151439 -0.0015414909 0.185 4793389
-0.012281483 -0.0015414909 0.185 10712701
-0.011411528 -0.0015414909 0.185 12751512
-0.010541573 -0.0015414909 0.185 13474208
-0.0096716173 -0.0015414909 0.185 13933989
-0.0088016624 -0.0015414909 0.185 12486545
-0.0078888331 -0.0015331586 0.18400002 13144473
-0.0070235799 -0.0015331586 0.18400002 13999782
-0.0061583263 -0.0015331586 0.18400002 12684694
-0.0052930736 -0.0015331586 0.18400002 15712199
-0.004403756 -0.0015248262 0.18300001 15252416
-0.0035432056 -0.0015248262 0.18300001 16172486
-0.0026826551 -0.0015248262 0.18300001 12420489
-0.0018121476 -0.0015164937 0.18200001 13078419
-0.00095629948 -0.0015164937 0.18200001 12285823
-0.00010100334 -0.0015248262 0.18300001 12218488
0.00075954717 -0.0015248262 0.18300001 11167340
0.0016200979 -0.0015248262 0.18300001 9851993
0.0024806485 -0.0015248262 0.18300001 15511215
0.0033411989 -0.0015248262 0.18300001 14920882
0.004178789 -0.0015164937 0.18200001 13341591
0.0050069741 -0.0015081614 0.18100001 11367031
0.00585812 -0.0015081614 0.18100001 10642279
0.0067092655 -0.0015081614 0.18100001 12025213
0.0075604115 -0.0015081614 0.18100001 11499898
0.0084115565 -0.0015081614 0.18100001 9922413
0.0092115272 -0.001499829 0.18000001 8146772
0.01005797 -0.001499829 0.18000001 8081744
0.010904414 -0.001499829 0.18000001 6242368
0.011750856 -0.001499829 0.18000001 3480863
0.012597299 -0.001499829 0.18000001 2889240
0.013443743 -0.001499829 0.18000001 2823960
0.014290187 -0.001499829 0.18000001 2562843
0.015136628 -0.001499829 0.18000001 2300698
0.015983073 -0.001499829 0.18000001 2168859
0.016829515 -0.001499829 0.18000001 2168859
0.017675959 -0.001499829 0.18000001 2301215
0.018522402 -0.001499829 0.18000001 2367521
0.019368844 -0.001499829 0.18000001 2105119
0.020215288 -0.001499829 0.18000001 1973790
0.021178741 -0.0015081614 0.18100001 1973790
0.021908173 -0.001499829 0.18000001 1776154
0.022628203 -0.0014914966 0.17900001 1710614
0.023338826 -0.0014831641 0.178 1842200
0.024040045 -0.0014748318 0.177 1776407
0.024731861 -0.0014664995 0.17600001 1776405
0.025559494 -0.0014664995 0.17600001 1842198
0.026387125 -0.0014664995 0.17600001 1842198
0.02721476 -0.0014664995 0.17600001 1842198
0.027883062 -0.0014581671 0.17500001 1776405
0.028705992 -0.0014581671 0.17500001 2169882
0.029528923 -0.0014581671 0.17500001 3347478
0.030351855 -0.0014581671 0.17500001 5316893
0.030996645 -0.0014498347 0.17400001 12287608
0.031814869 -0.0014498347 0.17400001 12219762
0.0326331 -0.0014498347 0.17400001 12875893
0.033451326 -0.0014498347 0.17400001 12546928
0.034269556 -0.0014498347 0.17400001 12679543
0.035087787 -0.0014498347 0.17400001 12154235
0.035906013 -0.0014498347 0.17400001 13405333
0.036724243 -0.0014498347 0.17400001 12222088
0.037758235 -0.0014581671 0.17500001 12684694
0.038801625 -0.0014664995 0.17600001 2167332
0.04007959 -0.0014831641 0.178 855313
0.040916629 -0.0014831641 0.178 1118481
0.041519094 -0.0014748318 0.177 1315860
-0.016631261 -0.00067153532 0.185 2369318
-0.015761305 -0.00067153532 0.185 2300965
-0.014891349 -0.00067153532 0.185 3546921
-0.014021395 -0.00067153532 0.185 9268083
-0.013151439 -0.00067153532 0.185 13803686
-0.012281483 -0.00067153532 0.185 12945295
-0.011411528 -0.00067153532 0.185 13076368
-0.010541573 -0.00067153532 0.185 13340307
-0.0096716173 -0.00067153532 0.185 14524581
-0.0088016624 -0.00067153532 0.185 13142928
-0.0078888331 -0.00066790549 0.18400002 13208721
-0.0070235799 -0.00066790549 0.18400002 14064030
-0.0061583263 -0.00066790549 0.18400002 12616846
-0.0052930736 -0.00066790549 0.18400002 14461618
-0.004403756 -0.00066427555 0.18300001 15318209
-0.0035238436 -0.0006606456 0.18200001 16633037
-0.0026679956 -0.0006606456 0.18200001 12420741
-0.0018121476 -0.0006606456 0.18200001 13865366
-0.00095629948 -0.0006606456 0.18200001 12351098
-0.00010100334 -0.00066427555 0.18300001 10902882
0.00075954717 -0.00066427555 0.18300001 10641250
0.0016200979 -0.00066427555 0.18300001 8865352
0.0024806485 -0.00066427555 0.18300001 7880770
0.0033594568 -0.00066790549 0.18400002 7619394
0.004178789 -0.0006606456 0.18200001 7358019
0.0050346372 -0.0006606456 0.18200001 8280920
0.0058904854 -0.0006606456 0.18200001 9398637
0.0067463336 -0.0006606456 0.18200001 3939615
0.0075604115 -0.00065701571 0.18100001 3020575
0.0084115565 -0.00065701571 0.18100001 2759969
0.0092115272 -0.00065338577 0.18000001 3024168
0.01005797 -0.00065338577 0.18000001 2695975
0.010964993 -0.00065701571 0.18100001 2499879
0.011816138 -0.00065701571 0.18100001 2762281
0.01273727 -0.0006606456 0.18200001 2367521
0.013443743 -0.00065338577 0.18000001 2105119
0.014290187 -0.00065338577 0.18000001 1907997
0.015136628 -0.00065338577 0.18000001 1776411
0.015983073 -0.00065338577 0.18000001 1644825
0.016829515 -0.00065338577 0.18000001 1776411
0.017675959 -0.00065338577 0.18000001 1776411
0.018625304 -0.00065701571 0.18100001 1842974
0.019476449 -0.00065701571 0.18100001 1777181
0.020327596 -0.00065701571 0.18100001 1974560
0.021295752 -0.0006606456 0.18200001 1842974
0.022151599 -0.0006606456 0.18200001 1514009
0.022628203 -0.00064975582 0.17900001 1579032
0.023338826 -0.00064612593 0.178 1644825
0.024040045 -0.00064249599 0.177 1710618
0.024731861 -0.0006388661 0.17600001 1776411
0.025559494 -0.0006388661 0.17600001 1776411
0.026387125 -0.0006388661 0.17600001 1710618
0.027060131 -0.00063523615 0.17500001 1710618
0.027883062 -0.00063523615 0.17500001 1841430
0.028705992 -0.00063523615 0.17500001 2165771
0.029528923 -0.00063523615 0.17500001 9198426
0.030351855 -0.00063523615 0.17500001 11957621
0.030996645 -0.00063160626 0.17400001 12614520
0.031814869 -0.00063160626 0.17400001 11954793
0.0326331 -0.00063160626 0.17400001 12084326
0.033451326 -0.00063160626 0.17400001 12084072
0.034269556 -0.00063160626 0.17400001 13731722
0.035087787 -0.00063160626 0.17400001 14785439
0.035906013 -0.00063160626 0.17400001 13207184
0.036724243 -0.00063160626 0.17400001 12418955
0.037758235 -0.00063523615 0.17500001 12551823
0.038801625 -0.0006388661 0.17600001 1968404
0.039629258 -0.0006388661 0.17600001 789266
0.04068676 -0.00064249599 0.177 919815
0.041519094 -0.00064249599 0.177 3814187
-0.020437209 0.00020163771 0.18800001 2040353
-0.019553145 0.00020163771 0.18800001 2435113
-0.018569779 0.00020056518 0.18700001 2829871
-0.017595818 0.00019949263 0.186 2696486
-0.016721159 0.00019949263 0.186 3479844
-0.015761305 0.00019842009 0.185 7294040
-0.014891349 0.00019842009 0.185 14464707
-0.014021395 0.00019842009 0.185 15319755
-0.013151439 0.00019842009 0.185 15843785
-0.012281483 0.00019842009 0.185 15380922
-0.011411528 0.00019842009 0.185 13274514
-0.010541573 0.00019842009 0.185 14786470
-0.0097238962 0.00019949263 0.186 14325917
-0.0088016624 0.00019842009 0.185 13404815
-0.0078888331 0.00019734756 0.18400002 13272970
-0.0070235799 0.00019734756 0.18400002 11889523
-0.0061248573 0.00019627501 0.18300001 11364721
-0.0052643064 0.00019627501 0.18300001 13210003
-0.0043796916 0.00019520248 0.18200001 14657964
-0.0035238436 0.00019520248 0.18200001 9788767
-0.0026679956 0.00019520248 0.18200001 9722204
-0.0018121476 0.00019520248 0.18200001 10840423
-0.00095629948 0.00019520248 0.18200001 9591640
-0.00010100334 0.00019627501 0.18300001 8278092
0.00075954717 0.00019627501 0.18300001 8411992
0.0016289508 0.00019734756 0.18400002 9005926
0.0024942039 0.00019734756 0.18400002 8678760
0.0033594568 0.00019734756 0.18400002 7362904
0.004178789 0.00019520248 0.18200001 7034712
0.0050346372 0.00019520248 0.18200001 3088417
0.0058904854 0.00019520248 0.18200001 2694690
0.0067463336 0.00019520248 0.18200001 2761768
0.0075604115 0.00019412993 0.18100001 2433314
0.0084115565 0.00019412993 0.18100001 2564900
0.0093138777 0.00019520248 0.18200001 2302498
0.010169726 0.00019520248 0.18200001 2236705
0.011207313 0.00019842009 0.185 2499879
0.012142551 0.00019949263 0.186 2499879
0.01273727 0.00019520248 0.18200001 2368550
0.013667806 0.00019627501 0.18300001 1973792
0.014448967 0.00019520248 0.18200001 1777181
0.015304814 0.00019520248 0.18200001 1842974
0.016160663 0.00019520248 0.18200001 1842974
0.017016511 0.00019520248 0.18200001 1645595
0.01787236 0.00019520248 0.18200001 1579802
0.018625304 0.00019412993 0.18100001 1777181
0.019799264 0.00019734756 0.18400002 1777181
0.020664519 0.00019734756 0.18400002 1974560
0.021412762 0.00019627501 0.18300001 1842974
0.022151599 0.00019520248 0.18200001 1579802
0.023007447 0.00019520248 0.18200001 1645595
0.023338826 0.00019091229 0.178 1842974
0.024040045 0.00018983976 0.177 1973790
0.024731861 0.00018876723 0.17600001 1907997
0.025559494 0.00018876723 0.17600001 1710618
0.026387125 0.00018876723 0.17600001 1710618
0.027060131 0.00018769469 0.17500001 2103319
0.027883062 0.00018769469 0.17500001 2296071
0.028705992 0.00018769469 0.17500001 10843251
0.029528923 0.00018769469 0.17500001 11563383
0.030351855 0.00018769469 0.17500001 11233133
0.030996645 0.00018662214 0.17400001 11626348
0.031814869 0.00018662214 0.17400001 12283508
0.0326331 0.00018662214 0.17400001 13269120
0.033451326 0.00018662214 0.17400001 14387347
0.034269556 0.00018662214 0.17400001 15836076
0.035087787 0.00018662214 0.17400001 14850208
0.035906013 0.00018662214 0.17400001 13338770
0.036724243 0.00018662214 0.17400001 12090502
0.037758235 0.00018769469 0.17500001 12093070
0.038360696 0.00018662214 0.17400001 1968905
0.039629258 0.00018876723 0.17600001 6118227
0.040456895 0.00018876723 0.17600001 8289392
0.041049957 0.00018769469 0.17500001 4078129
0.041872885 0.00018769469 0.17500001 1444874
-0.022441562 0.0010972506 0.19000001 1975330
-0.021434683 0.0010914756 0.18900001 1975330
-0.020545918 0.0010914756 0.18900001 2303525
-0.019449139 0.0010799256 0.18700001 2893867
-0.018569779 0.0010799256 0.18700001 3154731
-0.017595818 0.0010741506 0.186 5651011
-0.016721159 0.0010741506 0.186 12424350
-0.015846502 0.0010741506 0.186 14332347
-0.014971843 0.0010741506 0.186 13476266
-0.014097186 0.0010741506 0.186 15516103
-0.013222528 0.0010741506 0.186 16369611
-0.01234787 0.0010741506 0.186 14525095
-0.011473212 0.0010741506 0.186 13076620
-0.010598554 0.0010741506 0.186 13272970
-0.0097238962 0.0010741506 0.186 12218742
-0.0088016624 0.0010683755 0.185 11758961
-0.0078888331 0.0010626006 0.18400002 12087924
-0.0069854083 0.0010568256 0.18300001 11955309
-0.0061248573 0.0010568256 0.18300001 11167592
-0.0052643064 0.0010568256 0.18300001 9525079
-0.0035432056 0.0010568256 0.18300001 8147283
-0.0026826551 0.0010568256 0.18300001 8741217
-0.0018221044 0.0010568256 0.18300001 8282203
-0.00010155528 0.0010626006 0.18400002 8349279
0.00077199872 0.0010741506 0.186 8415588
0.0016378037 0.0010683755 0.185 6574413
0.0025077593 0.0010683755 0.185 5522758
0.0034142304 0.0010799256 0.18700001 2892073
0.0043165511 0.0010857006 0.18800001 2761770
0.0051452885 0.0010741506 0.186 2630697
0.0067463336 0.0010510506 0.18200001 2368550
0.0084580295 0.0010510506 0.18200001 1974562
0.0093138777 0.0010510506 0.18200001 2040355
0.010169726 0.0010510506 0.18200001 2237734
0.011267894 0.0010741506 0.186 2106148
0.012142551 0.0010741506 0.186 2369320
0.013087194 0.0010799256 0.18700001 2369320
0.013966555 0.0010799256 0.18700001 2237734
0.014845916 0.0010799256 0.18700001 1712160
0.015641183 0.0010741506 0.186 1712160
0.016604636 0.0010799256 0.18700001 1448988
0.017110009 0.0010568256 0.18300001 1646365
0.01787236 0.0010510506 0.18200001 1712158
0.018934011 0.0010626006 0.18400002 1514779
0.019799264 0.0010626006 0.18400002 1646365
0.020552211 0.0010568256 0.18300001 1777951
0.021412762 0.0010568256 0.18300001 1843744
0.022151599 0.0010510506 0.18200001 1777951
0.022881033 0.0010452756 0.18100001 1778204
0.023338826 0.0010279506 0.178 2040606
0.023904229 0.0010164005 0.17600001 1974813
0.024731861 0.0010164005 0.17600001 1776664
0.025559494 0.0010164005 0.17600001 2037526
0.026387125 0.0010164005 0.17600001 2953749
0.027060131 0.0010106255 0.17500001 5054499
0.027883062 0.0010106255 0.17500001 10578537
0.028705992 0.0010106255 0.17500001 10971498
0.029528923 0.0010106255 0.17500001 10838377
0.030351855 0.0010106255 0.17500001 11496053
0.030996645 0.0010048505 0.17400001 13665682
0.031814869 0.0010048505 0.17400001 13863058
0.0326331 0.0010048505 0.17400001 15573422
0.033451326 0.0010048505 0.17400001 15441318
0.034269556 0.0010048505 0.17400001 16231604
0.035087787 0.0010048505 0.17400001 13337739
0.035906013 0.0010048505 0.17400001 13734552
0.036724243 0.0010048505 0.17400001 13144473
0.037758235 0.0010106255 0.17500001 10386816
0.038581163 0.0010106255 0.17500001 5589319
-0.022441562 0.0019907183 0.19000001 1975332
-0.021434683 0.0019802409 0.18900001 2303527
-0.020437209 0.0019697635 0.18800001 2827559
-0.019449139 0.0019592859 0.18700001 3678758
-0.018569779 0.0019592859 0.18700001 12161430
-0.01769042 0.0019592859 0.18700001 13737895
-0.016721159 0.0019488084 0.186 13341852
-0.015846502 0.0019488084 0.186 13933989
-0.014971843 0.0019488084 0.186 13407645
-0.014097186 0.0019488084 0.186 15317439
-0.013293616 0.0019592859 0.18700001 15974594
-0.012414256 0.0019592859 0.18700001 11957623
-0.011534896 0.0019592859 0.18700001 12350326
-0.010712517 0.0019697635 0.18800001 12416889
-0.009776175 0.0019592859 0.18700001 12614268
-0.008849239 0.0019488084 0.186 11825522
-0.0078888331 0.0019278537 0.18400002 10839140
-0.0070235799 0.0019278537 0.18400002 9918038
0.0016820688 0.0019907183 0.19000001 3549220
0.0026026473 0.0020116733 0.192 2235937
0.0035420358 0.0020326283 0.19400001 2368552
0.0044083926 0.0020116733 0.192 2368552
0.0052006142 0.0019697635 0.18800001 2236966
0.0093650529 0.0019173762 0.18300001 2106148
0.010281481 0.0019278537 0.18400002 2040355
0.011328474 0.0019592859 0.18700001 2106148
0.012273116 0.0019697635 0.18800001 2040353
0.013087194 0.0019592859 0.18700001 2237732
0.014041243 0.0019697635 0.18800001 1909537
0.014925306 0.0019697635 0.18800001 1975330
0.015641183 0.0019488084 0.186 1777953
0.016515842 0.0019488084 0.186 1777953
0.017390499 0.0019488084 0.186 1843744
0.018166957 0.0019383309 0.185 1646365
0.018934011 0.0019278537 0.18400002 1777953
0.019691659 0.0019173762 0.18300001 1909539
0.020439902 0.0019068987 0.18200001 2040353
0.021295752 0.0019068987 0.18200001 2237215
0.022029886 0.0018964212 0.18100001 2171422
0.022754617 0.0018859437 0.18000001 2696739
0.023207709 0.0018545112 0.177 2694943
0.024040045 0.0018545112 0.177 2757654
0.024731861 0.0018440339 0.17600001 3412754
0.025559494 0.0018440339 0.17600001 6566195
0.026237199 0.0018335565 0.17500001 9458520
0.027060131 0.0018335565 0.17500001 9261141
0.027883062 0.0018335565 0.17500001 9327446
0.028705992 0.0018335565 0.17500001 10511470
0.029528923 0.0018335565 0.17500001 12286604
0.030351855 0.0018335565 0.17500001 16759243
0.030996645 0.001823079 0.17400001 16758982
0.031814869 0.001823079 0.17400001 16429760
0.0326331 0.001823079 0.17400001 15047335
0.033451326 0.001823079 0.17400001 14784415
0.034269556 0.001823079 0.17400001 15442088
0.035087787 0.001823079 0.17400001 13535888
0.035906013 0.001823079 0.17400001 13669018
-0.022441562 0.0028841863 0.19000001 2106150
-0.021434683 0.0028690062 0.18900001 2235426
-0.020437209 0.0028538264 0.18800001 3612965
-0.019553145 0.0028538264 0.18800001 13408926
-0.018569779 0.0028386463 0.18700001 15577267
-0.01769042 0.0028386463 0.18700001 15050925
-0.016811058 0.0028386463 0.18700001 14195362
-0.015931698 0.0028386463 0.18700001 13076368
-0.015052337 0.0028386463 0.18700001 11563383
-0.014172978 0.0028386463 0.18700001 15050925
-0.013364706 0.0028538264 0.18800001 12286075
-0.012480643 0.0028538264 0.18800001 12613241
-0.011658264 0.0028690062 0.18900001 12942204
-0.010826481 0.0028841863 0.19000001 12153715
-0.0098807337 0.0028690062 0.18900001 10247005
-0.0089919688 0.0028690062 0.18900001 6826798
0.0026162029 0.0029297259 0.193 2434341
0.0035602937 0.0029600859 0.19500001 2368548
0.0042706304 0.0028234664 0.186 2106146
0.0051729511 0.0028386463 0.18700001 2040355
0.006052312 0.0028386463 0.18700001 1975334
0.0068946043 0.0028234664 0.186 1975334
0.0077692624 0.0028234664 0.186 1909541
0.0085974475 0.0028082863 0.185 2106920
0.0095185777 0.0028234664 0.186 1975332
0.010672624 0.0028993662 0.19100001 1975332
0.011449634 0.0028690062 0.18900001 1975332
0.012403682 0.0028841863 0.19000001 2106146
0.01329715 0.0028841863 0.19000001 1974560
0.014115931 0.0028690062 0.18900001 1909537
0.015004696 0.0028690062 0.18900001 1909537
0.015893461 0.0028690062 0.18900001 1843744
0.016427046 0.0028082863 0.185 1975330
0.017203506 0.0027931067 0.18400002 1975330
0.017970558 0.0027779269 0.18300001 2106146
0.018728206 0.0027627468 0.18200001 2303525
0.019584054 0.0027627468 0.18200001 2237732
0.020327596 0.0027475669 0.18100001 2499877
0.021061732 0.0027323868 0.18000001 2890785
0.021786463 0.002717207 0.17900001 3414302
0.022501787 0.0027020269 0.178 5515567
0.023207709 0.002686847 0.177 8014152
0.023904229 0.0026716674 0.17600001 10380388
0.024731861 0.0026716674 0.17600001 9918038
0.025414271 0.0026564873 0.17500001 10049624
0.026237199 0.0026564873 0.17500001 8932176
0.027060131 0.0026564873 0.17500001 15709887
0.027883062 0.0026564873 0.17500001 16764375
0.028705992 0.0026564873 0.17500001 16766949
0.029528923 0.0026564873 0.17500001 16766439
0.030351855 0.0026564873 0.17500001 14853042
0.030996645 0.0026413074 0.17400001 15246256
0.031814869 0.0026413074 0.17400001 15508656
0.0326331 0.0026413074 0.17400001 14784933
0.033451326 0.0026413074 0.17400001 14389659
0.034269556 0.0026413074 0.17400001 13798290
0.035087787 0.0026413074 0.17400001 12945547
-0.022441562 0.0037776541 0.19000001 7629680
-0.021434683 0.0037577716 0.18900001 11047060
-0.020437209 0.0037378892 0.18800001 13277594
-0.019553145 0.0037378892 0.18800001 14655652
-0.018569779 0.0037180067 0.18700001 13996952
-0.01769042 0.0037180067 0.18700001 13404817
-0.016811058 0.0037180067 0.18700001 12220543
-0.016016895 0.0037378892 0.18800001 13206153
-0.01513283 0.0037378892 0.18800001 12021361
-0.014248769 0.0037378892 0.18800001 11692139
-0.013435795 0.0037577716 0.18900001 11693166
-0.012613416 0.0037776541 0.19000001 12679291
-0.011781632 0.0037975365 0.19100001 9653583
-0.010997425 0.0038373009 0.193 6102046
-0.010246687 0.0038969484 0.19600001 5577499
-0.0096580405 0.0040361248 0.20300001 4855059
-0.0090464326 0.004195184 0.21100001 4592655
0.0035602937 0.0038770658 0.19500001 2106148
0.0044772737 0.0038770658 0.19500001 2303527
0.0051452885 0.0036981243 0.186 2106148
0.0060199467 0.0036981243 0.186 1974562
0.0068575363 0.003678242 0.185 2040355
0.0077274921 0.003678242 0.185 2106150
0.0085974475 0.003678242 0.185 1974564
0.0095185777 0.0036981243 0.186 2040355
0.010504992 0.0037378892 0.18800001 2040355
0.011570795 0.0037975365 0.19100001 2303527
0.012273116 0.0037378892 0.18800001 2040355
0.01315718 0.0037378892 0.18800001 2040353
0.014041243 0.0037378892 0.18800001 2106146
0.014925306 0.0037378892 0.18800001 1909537
0.015641183 0.0036981243 0.186 1975332
0.016427046 0.003678242 0.185 1975332
0.017110009 0.0036384773 0.18300001 2237732
0.01787236 0.003618595 0.18200001 2630693
0.018625304 0.0035987124 0.18100001 3024421
0.019476449 0.0035987124 0.18100001 3677213
0.020215288 0.00357883 0.18000001 4925743
0.020827712 0.0035390651 0.178 9398385
0.02166475 0.0035390651 0.178 12357526
0.022375373 0.0035191828 0.177 9458266
0.023076594 0.0034993007 0.17600001 10443869
0.023904229 0.0034993007 0.17600001 11627375
0.024731861 0.0034993007 0.17600001 11890547
0.025414271 0.0034794181 0.17500001 11627373
0.026237199 0.0034794181 0.17500001 10443871
0.027060131 0.0034794181 0.17500001 15775678
0.027883062 0.0034794181 0.17500001 16369361
0.028705992 0.0034794181 0.17500001 16435417
0.029528923 0.0034794181 0.17500001 16764382
0.030351855 0.0034794181 0.17500001 16763611
0.030996645 0.0034595358 0.17400001 13272464
0.031814869 0.0034595358 0.17400001 13535118
0.0326331 0.0034595358 0.17400001 14061462
0.033451326 0.0034595358 0.17400001 13536401
0.034269556 0.0034595358 0.17400001 13077649
-0.022441562 0.0046711219 0.19000001 3612200
-0.021434683 0.0046465369 0.18900001 7292746
-0.020437209 0.0046219518 0.18800001 15051437
-0.019553145 0.0046219518 0.18800001 15182250
-0.018569779 0.0045973673 0.18700001 14128538
-0.01769042 0.0045973673 0.18700001 12023162
-0.016811058 0.0045973673 0.18700001 11825270
-0.016016895 0.0046219518 0.18800001 11758959
-0.01513283 0.0046219518 0.18800001 12087152
-0.014324561 0.0046465369 0.18900001 12350324
-0.013506884 0.0046711219 0.19000001 11166822
-0.012679802 0.0046957065 0.19100001 6891047
-0.011905 0.0047448762 0.193 6630185
-0.011111388 0.0047940458 0.19500001 5184024
-0.010455802 0.0049169702 0.2 4855829
-0.0097531937 0.0050398945 0.20500001 4461584
0.0044772737 0.0047940458 0.19500001 2237734
0.0051176255 0.0045481971 0.185 2106148
0.0059875813 0.0045481971 0.185 1974560
0.0067834011 0.004499028 0.18300001 1975330
0.007643952 0.004499028 0.18300001 2106918
0.0085045025 0.004499028 0.18300001 2106918
0.0094162282 0.004523613 0.18400002 1975332
0.010281481 0.004523613 0.18400002 2040355
0.011207313 0.0045481971 0.185 2237734
0.012142551 0.0045727822 0.186 2303525
0.013017209 0.0045727822 0.186 2237732
0.013742493 0.004523613 0.18400002 2434343
0.014766525 0.0045727822 0.186 2236966
0.015388906 0.004499028 0.18300001 2630184
0.016071867 0.0044498583 0.18100001 2694176
0.016923014 0.0044498583 0.18100001 3218207
0.017774159 0.0044498583 0.18100001 4794411
0.018522402 0.0044252733 0.18000001 7423047
0.019261241 0.0044006882 0.17900001 10843001
0.019990673 0.0043761036 0.178 15251648
0.020827712 0.0043761036 0.178 15382980
0.02166475 0.0043761036 0.178 15908551
0.022375373 0.0043515186 0.177 10445161
0.023076594 0.004326934 0.17600001 11758961
0.023904229 0.004326934 0.17600001 12810877
0.024731861 0.004326934 0.17600001 11955311
0.025414271 0.0043023489 0.17500001 11757162
0.026237199 0.0043023489 0.17500001 11494760
0.027060131 0.0043023489 0.17500001 11233646
0.027883062 0.0043023489 0.17500001 16171721
0.028705992 0.0043023489 0.17500001 16764373
0.029528923 0.0043023489 0.17500001 16762837
0.030351855 0.0043023489 0.17500001 13866399
0.030996645 0.0042777644 0.17400001 13405585
0.031814869 0.0042777644 0.17400001 13404815
0.0326331 0.0042777644 0.17400001 12945547
0.033451326 0.0042777644 0.17400001 12749452
0.034072604 0.0042531793 0.17300001 11699596
-0.022323448 0.0055353022 0.18900001 3347996
-0.021321272 0.0055060149 0.18800001 12421772
-0.020437209 0.0055060149 0.18800001 14722472
-0.019553145 0.0055060149 0.18800001 14787751
-0.018569779 0.0054767276 0.18700001 12944264
-0.01769042 0.0054767276 0.18700001 10377824
-0.016811058 0.0054767276 0.18700001 10772066
-0.016016895 0.0055060149 0.18800001 11890545
-0.01513283 0.0055060149 0.18800001 12218738
-0.014324561 0.0055353022 0.18900001 8995653
-0.013577973 0.0055938768 0.19100001 7351598
-0.012746188 0.0056231641 0.192 6234911
-0.011966684 0.0056817387 0.19400001 5512474
-0.011168369 0.0057403133 0.19600001 5118229
-0.010455802 0.0058574625 0.2 4724756
-0.0097531937 0.0060038995 0.20500001 4791063
-0.0090035582 0.006150336 0.21000001 4068369
0.0050899629 0.0053888657 0.18400002 1974560
0.0059552165 0.0053888657 0.18400002 2040353
0.0067463336 0.0053302911 0.18200001 2106146
0.0076021818 0.0053302911 0.18200001 2236962
0.0084580295 0.0053302911 0.18200001 2368548
0.0093138777 0.0053302911 0.18200001 2564900
0.010169726 0.0053302911 0.18200001 2695973
0.010964993 0.0053010038 0.18100001 2826789
0.011881421 0.0053302911 0.18200001 3088417
0.012667284 0.0053010038 0.18100001 3349279
0.013443743 0.0052717165 0.18000001 3873317
0.014369576 0.0053010038 0.18100001 5779517
0.015136628 0.0052717165 0.18000001 9657446
0.015983073 0.0052717165 0.18000001 11038836
0.016829515 0.0052717165 0.18000001 10973554
0.01757776 0.0052424292 0.17900001 11104627
0.018316597 0.0052131414 0.178 10973043
0.019153636 0.0052131414 0.178 11301754
0.019990673 0.0052131414 0.178 15908549
0.020710703 0.0051838541 0.177 15974855
0.021543037 0.0051838541 0.177 15843269
0.022248961 0.0051545673 0.17600001 15182257
0.023076594 0.0051545673 0.17600001 13206153
0.023904229 0.0051545673 0.17600001 12744829
0.024731861 0.0051545673 0.17600001 12151922
0.025414271 0.00512528 0.17500001 11690858
0.026237199 0.00512528 0.17500001 11033439
0.027060131 0.00512528 0.17500001 10573658
0.027883062 0.00512528 0.17500001 14589861
0.028705992 0.00512528 0.17500001 11300986
0.029528923 0.00512528 0.17500001 11761021
0.030351855 0.00512528 0.17500001 13998749
0.031174786 0.00512528 0.17500001 13473175
0.031814869 0.0050959927 0.17400001 12487565
0.0326331 0.0050959927 0.17400001 12357006
-0.022205334 0.0063900775 0.18800001 3348507
-0.021321272 0.0063900775 0.18800001 12355979
-0.020437209 0.0063900775 0.18800001 13801370
-0.019553145 0.0063900775 0.18800001 11366517
-0.018569779 0.0063560875 0.18700001 10378078
-0.01769042 0.0063560875 0.18700001 10245720
-0.016811058 0.0063560875 0.18700001 11100259
-0.016016895 0.0063900775 0.18800001 10244948
-0.01513283 0.0063900775 0.18800001 8338491
-0.014324561 0.0064240671 0.18900001 7220525
-0.013577973 0.0064920471 0.19100001 6103327
-0.012746188 0.0065260362 0.192 5709853
-0.011966684 0.0065940162 0.19400001 5512987
-0.011168369 0.0066619958 0.19600001 5184792
-0.010403524 0.0067639654 0.19900002 4987926
-0.0097056171 0.006933914 0.20400001 5120798
-0.0090035582 0.0071378523 0.21000001 4398104
0.0057933894 0.0060841693 0.17900001 2301468
0.0067092655 0.0061521493 0.18100001 2169112
0.0075604115 0.0061521493 0.18100001 2694427
0.0084115565 0.0061521493 0.18100001 3086619
0.0092627024 0.0061521493 0.18100001 3939100
0.010113848 0.0061521493 0.18100001 6635329
0.010904414 0.0061181593 0.18000001 8411229
0.011750856 0.0061181593 0.18000001 9068389
0.012597299 0.0061181593 0.18000001 9134182
0.013443743 0.0061181593 0.18000001 12884129
0.014290187 0.0061181593 0.18000001 15053501
0.015052537 0.0060841693 0.17900001 11497849
0.015894277 0.0060841693 0.17900001 12418690
0.016736018 0.0060841693 0.17900001 12419457
0.01757776 0.0060841693 0.17900001 12353664
0.018316597 0.0060501797 0.178 12683143
0.019046031 0.0060161897 0.177 12879754
0.019878367 0.0060161897 0.177 13078419
0.020710703 0.0060161897 0.177 16435404
0.021543037 0.0060161897 0.177 15645888
0.022248961 0.0059822001 0.17600001 16761546
0.023076594 0.0059822001 0.17600001 12481660
0.023904229 0.0059822001 0.17600001 12480887
0.024731861 0.0059822001 0.17600001 12678266
0.025414271 0.0059482106 0.17500001 12415864
0.026237199 0.0059482106 0.17500001 12350328
0.027060131 0.0059482106 0.17500001 11823984
0.027883062 0.0059482106 0.17500001 11496559
0.028705992 0.0059482106 0.17500001 11629174
0.029528923 0.0059482106 0.17500001 12353410
0.030351855 0.0059482106 0.17500001 12420489
0.031174786 0.0059482106 0.17500001 11830662
0.031814869 0.0059142206 0.17400001 11700875
-0.022205334 0.0072741406 0.18800001 3546656
-0.021321272 0.0072741406 0.18800001 11830148
-0.020437209 0.0072741406 0.18800001 11827580
-0.019553145 0.0072741406 0.18800001 10049372
-0.018569779 0.0072354483 0.18700001 9653585
-0.01769042 0.0072354483 0.18700001 9192260
-0.016811058 0.0072354483 0.18700001 7612201
-0.016016895 0.0072741406 0.18800001 6692123
-0.01513283 0.0072741406 0.18800001 6757919
-0.014324561 0.0073128329 0.18900001 6430748
-0.013506884 0.0073515251 0.19000001 5971739
-0.012679802 0.0073902179 0.19100001 5512985
-0.011905 0.0074676014 0.193 5316378
-0.011054406 0.0075062942 0.19400001 5250585
-0.010246687 0.0075836787 0.19600001 5382686
-0.0096580405 0.0078545241 0.20300001 5382686
-0.0089606848 0.0080866776 0.20900001 4725786
0.0040869475 0.006887218 0.178 4794409
0.0049239853 0.006887218 0.178 5847099
0.0057933894 0.0069259102 0.17900001 7819090
0.0066721975 0.006964603 0.18000001 9528936
0.0075186412 0.006964603 0.18000001 9527907
0.0083650844 0.006964603 0.18000001 9593184
0.0092115272 0.006964603 0.18000001 9591901
0.01005797 0.006964603 0.18000001 9723489
0.010904414 0.006964603 0.18000001 9328477
0.011750856 0.006964603 0.18000001 11039095
0.012597299 0.006964603 0.18000001 10842486
0.013369055 0.0069259102 0.17900001 16107725
0.014290187 0.006964603 0.18000001 16040135
0.015052537 0.0069259102 0.17900001 12682123
0.015805483 0.006887218 0.178 12945034
0.01664252 0.006887218 0.178 13800343
0.017479559 0.006887218 0.178 13011340
0.018213695 0.0068485257 0.177 12879754
0.019046031 0.0068485257 0.177 12352127
0.019878367 0.0068485257 0.177 12088955
0.020710703 0.0068485257 0.177 16497858
0.021543037 0.0068485257 0.177 14195103
0.022248961 0.0068098339 0.17600001 13534348
0.023076594 0.0068098339 0.17600001 12415862
0.023904229 0.0068098339 0.17600001 12481655
0.024731861 0.0068098339 0.17600001 12284276
0.025559494 0.0068098339 0.17600001 12153717
0.026387125 0.0068098339 0.17600001 12022901
0.02721476 0.0068098339 0.17600001 12418172
0.028042393 0.0068098339 0.17600001 12353662
0.028870028 0.0068098339 0.17600001 12223362
0.029528923 0.0067711417 0.17500001 12290184
0.030351855 0.0067711417 0.17500001 12159627
0.031174786 0.0067711417 0.17500001 11897484
-0.022205334 0.0081582032 0.18800001 3414300
-0.021321272 0.0081582032 0.18800001 12092037
-0.020437209 0.0081582032 0.18800001 12221824
