# .PCD v0.7 - Point Cloud Data file format
VERSION 0.7
FIELDS x y z rgb
SIZE 4 4 4 4
TYPE F F F U
COUNT 1 1 1 1
WIDTH 1076
HEIGHT 1
VIEWPOINT 0 0 0 1 0 0 0
POINTS 1076
DATA ascii
0.030273039 -0.0015831528 0.19000001 13277344
0.031166507 -0.0015831528 0.19000001 10378085
0.032059975 -0.0015831528 0.19000001 11757162
0.032953441 -0.0015831528 0.19000001 12348014
0.033846911 -0.0015831528 0.19000001 14190218
0.034740377 -0.0015831528 0.19000001 13663358
0.035446297 -0.0015748205 0.18900001 12282221
0.036335062 -0.0015748205 0.18900001 16764627
0.037223827 -0.0015748205 0.18900001 16772848
0.038112596 -0.0015748205 0.18900001 16775930
0.039001361 -0.0015748205 0.18900001 16775419
0.039890125 -0.0015748205 0.18900001 14984880
0.04077889 -0.0015748205 0.18900001 16623030
0.041667655 -0.0015748205 0.18900001 16425905
0.04255642 -0.0015748205 0.18900001 16689075
0.043445185 -0.0015748205 0.18900001 16163242
0.04433395 -0.0015748205 0.18900001 15903668
-0.016187288 -0.000689685 0.19000001 1906459
-0.015293819 -0.000689685 0.19000001 4990515
-0.014400352 -0.000689685 0.19000001 13670038
-0.013506884 -0.000689685 0.19000001 16495285
-0.012613416 -0.000689685 0.19000001 14059919
-0.011719949 -0.000689685 0.19000001 13006718
-0.010826481 -0.000689685 0.19000001 11557730
-0.0099330125 -0.000689685 0.19000001 12412780
-0.0090395454 -0.000689685 0.19000001 13597308
-0.0081460774 -0.000689685 0.19000001 13334136
-0.0072526094 -0.000689685 0.19000001 10571857
-0.0018818455 -0.00068605505 0.18900001 12296096
-0.0009930802 -0.00068605505 0.18900001 8020582
0.00078445039 -0.00068605505 0.18900001 10982033
0.0016732158 -0.00068605505 0.18900001 11837855
0.0025619811 -0.00068605505 0.18900001 11378074
0.0034507464 -0.00068605505 0.18900001 10392208
0.0043395115 -0.00068605505 0.18900001 8877170
0.0052282768 -0.00068605505 0.18900001 8022377
0.0061494079 -0.000689685 0.19000001 8483180
0.0070799435 -0.00069331494 0.19100001 8087652
0.012237174 -0.000733244 0.20200001 7628384
0.014937492 -0.00072598417 0.2 8287346
0.015798597 -0.00072235428 0.19900002 7826795
0.017226201 -0.00070420466 0.19400001 8220519
0.01804498 -0.00070057472 0.193 7891808
0.018756157 -0.00069331494 0.19100001 7825248
0.019654326 -0.00069331494 0.19100001 7693662
0.020552497 -0.00069331494 0.19100001 7561306
0.021450669 -0.00069331494 0.19100001 7362130
0.022231828 -0.000689685 0.19000001 7360849
0.023247007 -0.00069331494 0.19100001 7885396
0.024018764 -0.000689685 0.19000001 8739161
0.024912233 -0.000689685 0.19000001 10315111
0.025805701 -0.000689685 0.19000001 12091006
0.026699169 -0.000689685 0.19000001 11893113
0.027447412 -0.00068605505 0.18900001 11104111
0.028336175 -0.00068605505 0.18900001 16106439
0.02922494 -0.00068605505 0.18900001 16766171
0.030113706 -0.00068605505 0.18900001 16765401
0.031002471 -0.00068605505 0.18900001 15972027
0.031891238 -0.00068605505 0.18900001 13204608
0.032780003 -0.00068605505 0.18900001 14255241
0.033668768 -0.00068605505 0.18900001 13925249
0.034557533 -0.00068605505 0.18900001 13267060
0.035446297 -0.00068605505 0.18900001 12807022
0.036335062 -0.00068605505 0.18900001 12612473
0.037223827 -0.00068605505 0.18900001 16770028
0.038112596 -0.00068605505 0.18900001 16773881
0.039001361 -0.00068605505 0.18900001 16765661
0.039890125 -0.00068605505 0.18900001 15112355
0.04077889 -0.00068605505 0.18900001 15702434
0.041667655 -0.00068605505 0.18900001 15636898
0.04255642 -0.00068605505 0.18900001 15572643
0.043445185 -0.00068605505 0.18900001 14918306
0.04433395 -0.00068605505 0.18900001 9067106
-0.016187288 0.00020378281 0.19000001 1707285
-0.015293819 0.00020378281 0.19000001 11496053
-0.014400352 0.00020378281 0.19000001 13865107
-0.013506884 0.00020378281 0.19000001 14323859
-0.012613416 0.00020378281 0.19000001 11296611
-0.011719949 0.00020378281 0.19000001 10900570
-0.010826481 0.00020378281 0.19000001 11163224
-0.0099330125 0.00020378281 0.19000001 11031638
-0.0090395454 0.00020378281 0.19000001 11360603
-0.0081460774 0.00020378281 0.19000001 9849165
0.0016732158 0.00020271026 0.18900001 8482412
0.0025619811 0.00020271026 0.18900001 7693666
0.0034507464 0.00020271026 0.18900001 7431007
0.0043395115 0.00020271026 0.18900001 7299421
0.018559758 0.00020271026 0.18900001 8216926
0.019551424 0.00020378281 0.19000001 8413022
0.020337287 0.00020271026 0.18900001 8544862
0.02133836 0.00020378281 0.19000001 12884120
0.022231828 0.00020378281 0.19000001 15779273
0.023125295 0.00020378281 0.19000001 16566990
0.024018764 0.00020378281 0.19000001 12089725
0.024912233 0.00020378281 0.19000001 13206923
0.02566988 0.00020271026 0.18900001 14325658
0.026558645 0.00020271026 0.18900001 13601933
0.027447412 0.00020271026 0.18900001 14523035
0.028336175 0.00020271026 0.18900001 13339024
0.02922494 0.00020271026 0.18900001 16767455
0.030113706 0.00020271026 0.18900001 16699862
0.031002471 0.00020271026 0.18900001 16764886
0.031891238 0.00020271026 0.18900001 14651541
0.032780003 0.00020271026 0.18900001 14122115
0.033668768 0.00020271026 0.18900001 13990529
0.034557533 0.00020271026 0.18900001 13991042
0.035446297 0.00020271026 0.18900001 13531261
0.036335062 0.00020271026 0.18900001 12873331
0.037223827 0.00020271026 0.18900001 14189448
0.038112596 0.00020271026 0.18900001 13467267
0.039001361 0.00020271026 0.18900001 14059919
0.039890125 0.00020271026 0.18900001 16757945
0.04077889 0.00020271026 0.18900001 16033194
0.041667655 0.00020271026 0.18900001 14718876
0.04255642 0.00020271026 0.18900001 13735317
0.043445185 0.00020271026 0.18900001 13146268
-0.016187288 0.0010972506 0.19000001 1967889
-0.015293819 0.0010972506 0.19000001 12480887
-0.014400352 0.0010972506 0.19000001 13601161
-0.013506884 0.0010972506 0.19000001 12876672
-0.012613416 0.0010972506 0.19000001 10705246
-0.011719949 0.0010972506 0.19000001 10573658
-0.010826481 0.0010972506 0.19000001 11296863
-0.0099330125 0.0010972506 0.19000001 12150889
-0.0090395454 0.0010972506 0.19000001 9322306
-0.0081460774 0.0010972506 0.19000001 8600125
-0.000103763 0.0010857006 0.18800001 7825252
0.00078029983 0.0010857006 0.18800001 7825252
0.0016732158 0.0010914756 0.18900001 8022631
0.0025619811 0.0010914756 0.18900001 8285801
0.0034507464 0.0010914756 0.18900001 7298134
0.0043395115 0.0010914756 0.18900001 7100755
0.0052282768 0.0010914756 0.18900001 7100757
0.0061170426 0.0010914756 0.18900001 7560795
0.0069687399 0.0010857006 0.18800001 7297623
0.0078945737 0.0010914756 0.18900001 7166037
0.0087833386 0.0010914756 0.18900001 7100244
0.0096721034 0.0010914756 0.18900001 7099728
0.010560869 0.0010914756 0.18900001 8480611
0.011389053 0.0010857006 0.18800001 8611684
0.012273116 0.0010857006 0.18800001 8479328
0.01315718 0.0010857006 0.18800001 7227464
0.014041243 0.0010857006 0.18800001 7555918
0.014925306 0.0010857006 0.18800001 8213850
0.015809368 0.0010857006 0.18800001 7884115
0.016693432 0.0010857006 0.18800001 8738907
0.017577494 0.0010857006 0.18800001 9657696
0.018559758 0.0010914756 0.18900001 9196632
0.019448522 0.0010914756 0.18900001 9657181
0.020337287 0.0010914756 0.18900001 10315111
0.021226054 0.0010914756 0.18900001 12617868
0.022114819 0.0010914756 0.18900001 16767452
0.023003584 0.0010914756 0.18900001 16768992
0.023892349 0.0010914756 0.18900001 14193818
0.024781115 0.0010914756 0.18900001 14850208
0.02566988 0.0010914756 0.18900001 14915998
0.026558645 0.0010914756 0.18900001 14060687
0.027447412 0.0010914756 0.18900001 13730439
0.028336175 0.0010914756 0.18900001 13730439
0.02922494 0.0010914756 0.18900001 14916003
0.030113706 0.0010914756 0.18900001 16767202
0.031002471 0.0010914756 0.18900001 15902639
0.031891238 0.0010914756 0.18900001 15437975
0.032780003 0.0010914756 0.18900001 14384771
0.033668768 0.0010914756 0.18900001 14122369
0.034557533 0.0010914756 0.18900001 13201526
0.035446297 0.0010914756 0.18900001 13135733
0.036335062 0.0010914756 0.18900001 13005171
0.037223827 0.0010914756 0.18900001 12873842
0.038112596 0.0010914756 0.18900001 14059402
0.039001361 0.0010914756 0.18900001 15046812
0.039890125 0.0010914756 0.18900001 14718876
0.04077889 0.0010914756 0.18900001 14325658
0.041667655 0.0010914756 0.18900001 14196382
0.04255642 0.0010914756 0.18900001 13804968
-0.016187288 0.0019907183 0.19000001 1837837
-0.015293819 0.0019907183 0.19000001 11364721
-0.014400352 0.0019907183 0.19000001 13206407
-0.013506884 0.0019907183 0.19000001 12810879
-0.012613416 0.0019907183 0.19000001 11627375
-0.011719949 0.0019907183 0.19000001 12680063
-0.010826481 0.0019907183 0.19000001 12810620
-0.0099330125 0.0019907183 0.19000001 13993609
-0.0090395454 0.0019907183 0.19000001 13203577
-0.0081460774 0.0019907183 0.19000001 12151659
-0.0072144377 0.0019802409 0.18900001 13665411
-0.006292203 0.0019697635 0.18800001 10575203
-0.0045240773 0.0019697635 0.18800001 13344419
-0.0036400142 0.0019697635 0.18800001 13477803
-0.0027559516 0.0019697635 0.18800001 9993341
-0.0018718888 0.0019697635 0.18800001 12755360
-0.0009878258 0.0019697635 0.18800001 9333354
-0.000103763 0.0019697635 0.18800001 8609371
0.00078445039 0.0019802409 0.18900001 7884363
0.0016732158 0.0019802409 0.18900001 7554885
0.0025619811 0.0019802409 0.18900001 7357506
0.0034507464 0.0019802409 0.18900001 7621191
0.0043395115 0.0019802409 0.18900001 7292998
0.0052282768 0.0019802409 0.18900001 7226955
0.0061170426 0.0019802409 0.18900001 8014418
0.0070058075 0.0019802409 0.18900001 8737623
0.0078945737 0.0019802409 0.18900001 9265251
0.0087833386 0.0019802409 0.18900001 9989228
0.0096721034 0.0019802409 0.18900001 10119015
0.010560869 0.0019802409 0.18900001 10643306
0.011449634 0.0019802409 0.18900001 11564408
0.012273116 0.0019697635 0.18800001 11695994
0.01315718 0.0019697635 0.18800001 15185078
0.014115931 0.0019802409 0.18900001 16566990
0.015004696 0.0019802409 0.18900001 15315640
0.015893461 0.0019802409 0.18900001 10774126
0.016782226 0.0019802409 0.18900001 11562613
0.017670993 0.0019802409 0.18900001 12680581
0.018559758 0.0019802409 0.18900001 14917543
0.019448522 0.0019802409 0.18900001 15247019
0.020337287 0.0019802409 0.18900001 14918308
0.021226054 0.0019802409 0.18900001 13666706
0.022114819 0.0019802409 0.18900001 16767708
0.023003584 0.0019802409 0.18900001 16771564
0.023892349 0.0019802409 0.18900001 13600911
0.024781115 0.0019802409 0.18900001 13994642
0.02566988 0.0019802409 0.18900001 13994126
0.026558645 0.0019802409 0.18900001 13796232
0.027447412 0.0019802409 0.18900001 14518415
0.028336175 0.0019802409 0.18900001 13860228
0.02922494 0.0019802409 0.18900001 15307674
0.030113706 0.0019802409 0.18900001 13333886
0.031002471 0.0019802409 0.18900001 12938354
0.031891238 0.0019802409 0.18900001 13464439
0.032780003 0.0019802409 0.18900001 14517127
0.033668768 0.0019802409 0.18900001 14583433
0.034557533 0.0019802409 0.18900001 14451847
0.035446297 0.0019802409 0.18900001 14584203
0.036335062 0.0019802409 0.18900001 14452874
0.037223827 0.0019802409 0.18900001 14256781
0.038112596 0.0019802409 0.18900001 14784410
0.039207716 0.0019907183 0.19000001 14062484
0.040101185 0.0019907183 0.19000001 13669011
0.04077889 0.0019802409 0.18900001 14460324
0.041667655 0.0019802409 0.18900001 14199208
0.04255642 0.0019802409 0.18900001 6176074
-0.016187288 0.0028841863 0.19000001 2762532
-0.015293819 0.0028841863 0.19000001 5386809
-0.014400352 0.0028841863 0.19000001 11498103
-0.013506884 0.0028841863 0.19000001 12417659
-0.012613416 0.0028841863 0.19000001 12483452
-0.011719949 0.0028841863 0.19000001 14061462
-0.010826481 0.0028841863 0.19000001 14850462
-0.0099330125 0.0028841863 0.19000001 14190990
-0.0090395454 0.0028841863 0.19000001 14848918
-0.0081460774 0.0028841863 0.19000001 14848402
-0.0072144377 0.0028690062 0.18900001 14387081
-0.006292203 0.0028538264 0.18800001 12678264
-0.0054081399 0.0028538264 0.18800001 10905453
-0.0045240773 0.0028538264 0.18800001 14790579
-0.0036400142 0.0028538264 0.18800001 13277856
-0.0027559516 0.0028538264 0.18800001 10974072
-0.0018818455 0.0028690062 0.18900001 11564156
-0.0009930802 0.0028690062 0.18900001 11892859
-0.00010431492 0.0028690062 0.18900001 12745856
0.00078445039 0.0028690062 0.18900001 12745856
0.0016732158 0.0028690062 0.18900001 12548475
0.0025619811 0.0028690062 0.18900001 12088696
0.0034507464 0.0028690062 0.18900001 13144471
0.0043395115 0.0028690062 0.18900001 15384517
0.0052282768 0.0028690062 0.18900001 16635100
0.0061170426 0.0028690062 0.18900001 16767202
0.0070058075 0.0028690062 0.18900001 14525361
0.0078945737 0.0028690062 0.18900001 11366265
0.0087833386 0.0028690062 0.18900001 11497590
0.0096721034 0.0028690062 0.18900001 11956856
0.010560869 0.0028690062 0.18900001 13535888
0.011449634 0.0028690062 0.18900001 13272716
0.012338399 0.0028690062 0.18900001 13403532
0.013227165 0.0028690062 0.18900001 16103613
0.014115931 0.0028690062 0.18900001 16764627
0.015004696 0.0028690062 0.18900001 16767972
0.015893461 0.0028690062 0.18900001 13404563
0.016782226 0.0028690062 0.18900001 15441318
0.017670993 0.0028690062 0.18900001 16098989
0.018559758 0.0028690062 0.18900001 15836330
0.019448522 0.0028690062 0.18900001 15375777
0.020337287 0.0028690062 0.18900001 13731722
0.021226054 0.0028690062 0.18900001 14192273
0.022114819 0.0028690062 0.18900001 16362672
0.023003584 0.0028690062 0.18900001 15639721
0.023892349 0.0028690062 0.18900001 14652572
0.024781115 0.0028690062 0.18900001 14388630
0.02566988 0.0028690062 0.18900001 13138304
0.026558645 0.0028690062 0.18900001 13137532
0.027447412 0.0028690062 0.18900001 13334911
0.028336175 0.0028690062 0.18900001 13663106
0.02922494 0.0028690062 0.18900001 14057607
0.030113706 0.0028690062 0.18900001 13531261
0.031002471 0.0028690062 0.18900001 13464698
0.031891238 0.0028690062 0.18900001 14057859
0.032780003 0.0028690062 0.18900001 15439515
0.033846911 0.0028841863 0.19000001 14979734
0.034740377 0.0028841863 0.19000001 14717334
0.035633843 0.0028841863 0.19000001 14981019
0.036527313 0.0028841863 0.19000001 14652824
0.037420779 0.0028841863 0.19000001 14389909
0.038314249 0.0028841863 0.19000001 14128790
0.039207716 0.0028841863 0.19000001 13406352
0.040101185 0.0028841863 0.19000001 13605528
0.04077889 0.0028690062 0.18900001 14528173
0.041667655 0.0028690062 0.18900001 8807530
-0.016187288 0.0037776541 0.19000001 4539469
-0.015293819 0.0037776541 0.19000001 9399929
-0.014400352 0.0037776541 0.19000001 15445429
-0.013506884 0.0037776541 0.19000001 16760509
-0.012613416 0.0037776541 0.19000001 16298676
-0.011719949 0.0037776541 0.19000001 14981789
-0.010826481 0.0037776541 0.19000001 15046814
-0.0099330125 0.0037776541 0.19000001 15112090
-0.0090395454 0.0037776541 0.19000001 14914711
-0.0081460774 0.0037776541 0.19000001 15111320
-0.0072144377 0.0037577716 0.18900001 15440285
-0.0063256719 0.0037577716 0.18900001 14190990
-0.0054369066 0.0037577716 0.18900001 11693684
-0.0045481413 0.0037577716 0.18900001 16697293
-0.0036593762 0.0037577716 0.18900001 16566992
-0.0027706109 0.0037577716 0.18900001 16764370
-0.0018818455 0.0037577716 0.18900001 15774394
-0.0009930802 0.0037577716 0.18900001 12087672
-0.00010431492 0.0037577716 0.18900001 12020852
0.00078445039 0.0037577716 0.18900001 12020852
0.0016732158 0.0037577716 0.18900001 11955311
0.0025619811 0.0037577716 0.18900001 12153719
0.0034507464 0.0037577716 0.18900001 16764633
0.0043395115 0.0037577716 0.18900001 16700123
0.0052282768 0.0037577716 0.18900001 16767719
0.0061170426 0.0037577716 0.18900001 16768233
0.0070058075 0.0037577716 0.18900001 16765404
0.0078945737 0.0037577716 0.18900001 12813196
0.0087833386 0.0037577716 0.18900001 14062232
0.0096721034 0.0037577716 0.18900001 14389909
0.010560869 0.0037577716 0.18900001 14784667
0.011449634 0.0037577716 0.18900001 14915996
0.012338399 0.0037577716 0.18900001 15376547
0.013227165 0.0037577716 0.18900001 13733521
0.014115931 0.0037577716 0.18900001 16763599
0.015004696 0.0037577716 0.18900001 16767200
0.015893461 0.0037577716 0.18900001 15640496
0.016782226 0.0037577716 0.18900001 15309473
0.017670993 0.0037577716 0.18900001 15638438
0.018559758 0.0037577716 0.18900001 14256013
0.019448522 0.0037577716 0.18900001 14059404
0.020337287 0.0037577716 0.18900001 13336194
0.021226054 0.0037577716 0.18900001 14059917
0.022114819 0.0037577716 0.18900001 14651541
0.023003584 0.0037577716 0.18900001 14256783
0.023892349 0.0037577716 0.18900001 13796234
0.024781115 0.0037577716 0.18900001 12743546
0.02566988 0.0037577716 0.18900001 12940925
0.026558645 0.0037577716 0.18900001 12743546
0.027447412 0.0037577716 0.18900001 13269888
0.028336175 0.0037577716 0.18900001 13993609
0.02922494 0.0037577716 0.18900001 13663874
0.030113706 0.0037577716 0.18900001 13729921
0.031166507 0.0037776541 0.19000001 14190472
0.032059975 0.0037776541 0.19000001 14388367
0.032953441 0.0037776541 0.19000001 13994124
0.034025054 0.0037975365 0.19100001 13204610
0.034923222 0.0037975365 0.19100001 13797517
0.035821389 0.0037975365 0.19100001 14522267
0.036719561 0.0037975365 0.19100001 14194072
0.037617732 0.0037975365 0.19100001 14326169
0.038515903 0.0037975365 0.19100001 14064280
0.039207716 0.0037776541 0.19000001 13342356
0.040101185 0.0037776541 0.19000001 13672864
0.04077889 0.0037577716 0.18900001 11174794
-0.016990857 0.0046465369 0.18900001 1645599
-0.01610209 0.0046465369 0.18900001 1514013
-0.015213325 0.0046465369 0.18900001 1380115
-0.014324561 0.0046465369 0.18900001 3213592
-0.013435795 0.0046465369 0.18900001 13340567
-0.012613416 0.0046711219 0.19000001 13470860
-0.011719949 0.0046711219 0.19000001 13731979
-0.010826481 0.0046711219 0.19000001 15506850
-0.0099330125 0.0046711219 0.19000001 15770020
-0.0090395454 0.0046711219 0.19000001 15375262
-0.0081460774 0.0046711219 0.19000001 15242906
-0.0072144377 0.0046465369 0.18900001 15242906
-0.0063256719 0.0046465369 0.18900001 15112605
-0.0054369066 0.0046465369 0.18900001 14786468
-0.0045481413 0.0046465369 0.18900001 16763857
-0.0036593762 0.0046465369 0.18900001 16765401
-0.0027706109 0.0046465369 0.18900001 16765657
-0.0018818455 0.0046465369 0.18900001 13799575
-0.0009930802 0.0046465369 0.18900001 14718619
-0.00010431492 0.0046465369 0.18900001 14783640
0.00078445039 0.0046465369 0.18900001 14981789
0.0016732158 0.0046465369 0.18900001 15113375
0.0025619811 0.0046465369 0.18900001 14455447
0.0034507464 0.0046465369 0.18900001 13865884
0.0043395115 0.0046465369 0.18900001 16765144
0.0052282768 0.0046465369 0.18900001 16766943
0.0061170426 0.0046465369 0.18900001 16767458
0.0070058075 0.0046465369 0.18900001 16766944
0.0078945737 0.0046465369 0.18900001 13732497
0.0087833386 0.0046465369 0.18900001 14783640
0.0096721034 0.0046465369 0.18900001 15177113
0.010560869 0.0046465369 0.18900001 14519437
0.011449634 0.0046465369 0.18900001 14716046
0.012338399 0.0046465369 0.18900001 14452874
0.013227165 0.0046465369 0.18900001 14189448
0.014115931 0.0046465369 0.18900001 15967401
0.015004696 0.0046465369 0.18900001 14716566
0.015893461 0.0046465369 0.18900001 15242910
0.016782226 0.0046465369 0.18900001 14650771
0.017670993 0.0046465369 0.18900001 14452622
0.018559758 0.0046465369 0.18900001 13860485
0.019448522 0.0046465369 0.18900001 13269118
0.020337287 0.0046465369 0.18900001 12875643
0.021226054 0.0046465369 0.18900001 13731724
0.022114819 0.0046465369 0.18900001 14192275
0.023003584 0.0046465369 0.18900001 14192275
0.023892349 0.0046465369 0.18900001 13468552
0.024912233 0.0046711219 0.19000001 13534345
0.025805701 0.0046711219 0.19000001 13797517
0.026699169 0.0046711219 0.19000001 13007229
0.027592637 0.0046711219 0.19000001 13533058
0.028486101 0.0046711219 0.19000001 13928070
0.029379569 0.0046711219 0.19000001 14125962
0.030273039 0.0046711219 0.19000001 14324111
0.031330541 0.0046957065 0.19100001 14324114
0.032228712 0.0046957065 0.19100001 13865105
0.033126883 0.0046957065 0.19100001 14062999
0.03420319 0.0047202911 0.192 13866390
0.035106063 0.0047202911 0.192 13866390
0.036008935 0.0047202911 0.192 12879754
0.036911808 0.0047202911 0.192 12814475
0.03781468 0.0047202911 0.192 13012878
0.038515903 0.0046957065 0.19100001 13277333
0.039414074 0.0046957065 0.19100001 13738657
0.040101185 0.0046711219 0.19000001 11898006
-0.016990857 0.0055353022 0.18900001 1777951
-0.01610209 0.0055353022 0.18900001 1646365
-0.015213325 0.0055353022 0.18900001 1579032
-0.014324561 0.0055353022 0.18900001 1905174
-0.013435795 0.0055353022 0.18900001 3279899
-0.012613416 0.0055645895 0.19000001 13012885
-0.011719949 0.0055645895 0.19000001 13472659
-0.010826481 0.0055645895 0.19000001 13405069
-0.0099330125 0.0055645895 0.19000001 14323857
-0.0090395454 0.0055645895 0.19000001 14125708
-0.0081460774 0.0055645895 0.19000001 14717332
-0.0072144377 0.0055353022 0.18900001 13467265
-0.0063256719 0.0055353022 0.18900001 13336194
-0.0054369066 0.0055353022 0.18900001 16760004
-0.0045481413 0.0055353022 0.18900001 16763602
-0.0036593762 0.0055353022 0.18900001 16767202
-0.0027706109 0.0055353022 0.18900001 16766688
-0.0018818455 0.0055353022 0.18900001 13468300
-0.0009930802 0.0055353022 0.18900001 14059406
-0.00010431492 0.0055353022 0.18900001 14321038
0.00078445039 0.0055353022 0.18900001 13730441
0.0016732158 0.0055353022 0.18900001 13928333
0.0025619811 0.0055353022 0.18900001 13337223
0.0034507464 0.0055353022 0.18900001 11958141
0.0043395115 0.0055353022 0.18900001 16768227
0.0052282768 0.0055353022 0.18900001 16766690
0.0061170426 0.0055353022 0.18900001 14918574
0.0070058075 0.0055353022 0.18900001 11890293
0.0078945737 0.0055353022 0.18900001 11822957
0.0087833386 0.0055353022 0.18900001 12348786
0.0096721034 0.0055353022 0.18900001 12742772
0.010560869 0.0055353022 0.18900001 13071737
0.011449634 0.0055353022 0.18900001 12939381
0.012338399 0.0055353022 0.18900001 12873588
0.013227165 0.0055353022 0.18900001 13728640
0.014115931 0.0055353022 0.18900001 13597054
0.015004696 0.0055353022 0.18900001 13728897
0.015893461 0.0055353022 0.18900001 13794690
0.016782226 0.0055353022 0.18900001 13795460
0.017670993 0.0055353022 0.18900001 13467265
0.018559758 0.0055353022 0.18900001 13928331
0.019551424 0.0055645895 0.19000001 14389652
0.020444892 0.0055645895 0.19000001 14061716
0.02133836 0.0055645895 0.19000001 13601935
0.022231828 0.0055645895 0.19000001 12680063
0.023125295 0.0055645895 0.19000001 12153719
0.024018764 0.0055645895 0.19000001 12219512
0.02504335 0.0055938768 0.19100001 12416119
0.025941519 0.0055938768 0.19100001 13403784
0.02683969 0.0055938768 0.19100001 13995919
0.027737861 0.0055938768 0.19100001 14324114
0.028636029 0.0055938768 0.19100001 14324368
0.0295342 0.0055938768 0.19100001 13733001
0.03043237 0.0055938768 0.19100001 13536653
0.031494573 0.0056231641 0.192 13274766
0.032397445 0.0056231641 0.192 12748682
0.033300318 0.0056231641 0.192 12618381
0.034381334 0.0056524514 0.193 12881551
0.035288908 0.0056524514 0.193 13276309
0.036196481 0.0056524514 0.193 12552586
0.037104059 0.0056524514 0.193 12421770
0.038011633 0.0056524514 0.193 13080213
0.038717553 0.0056231641 0.192 13212313
0.039414074 0.0055938768 0.19100001 12950174
-0.015213325 0.0064240671 0.18900001 1645595
-0.014324561 0.0064240671 0.18900001 1315603
-0.013435795 0.0064240671 0.18900001 2036762
-0.012613416 0.0064580571 0.19000001 2821399
-0.011719949 0.0064580571 0.19000001 11633801
-0.010826481 0.0064580571 0.19000001 12354946
-0.0099330125 0.0064580571 0.19000001 12550526
-0.0090395454 0.0064580571 0.19000001 13009024
-0.0081460774 0.0064580571 0.19000001 12810875
-0.0072526094 0.0064580571 0.19000001 12744825
-0.0063591413 0.0064580571 0.19000001 12744825
-0.0054656737 0.0064580571 0.19000001 13205637
-0.0045722057 0.0064580571 0.19000001 13534602
-0.0036787379 0.0064580571 0.19000001 12285051
-0.0027852703 0.0064580571 0.19000001 12612989
-0.0018918024 0.0064580571 0.19000001 13138817
-0.00099833461 0.0064580571 0.19000001 13072509
-0.00010486686 0.0064580571 0.19000001 13072509
0.00078860088 0.0064580571 0.19000001 12809337
0.0016820688 0.0064580571 0.19000001 12678264
0.0025755367 0.0064580571 0.19000001 12547448
0.0034690043 0.0064580571 0.19000001 12350074
0.0043624719 0.0064580571 0.19000001 11758707
0.0052559399 0.0064580571 0.19000001 12680581
0.0061494079 0.0064580571 0.19000001 12415864
0.0070428755 0.0064580571 0.19000001 12283506
0.0079363436 0.0064580571 0.19000001 11888235
0.0088298116 0.0064580571 0.19000001 12019821
0.0097232787 0.0064580571 0.19000001 12480370
0.010616747 0.0064580571 0.19000001 13006714
0.011510214 0.0064580571 0.19000001 13203323
0.012403682 0.0064580571 0.19000001 12808565
0.01329715 0.0064580571 0.19000001 12940921
0.014190618 0.0064580571 0.19000001 13072507
0.015084086 0.0064580571 0.19000001 13467265
0.015977552 0.0064580571 0.19000001 13665157
0.016871022 0.0064580571 0.19000001 13929358
0.01776449 0.0064580571 0.19000001 13534600
0.018657958 0.0064580571 0.19000001 13995153
0.019551424 0.0064580571 0.19000001 14258325
0.020552497 0.0064920471 0.19100001 12813448
0.021450669 0.0064920471 0.19100001 12682375
0.022348838 0.0064920471 0.19100001 12352897
0.023247007 0.0064920471 0.19100001 12418944
0.024145178 0.0064920471 0.19100001 12155002
0.025174465 0.0065260362 0.192 12089209
0.026077338 0.0065260362 0.192 12813702
0.02698021 0.0065260362 0.192 12879495
0.027883084 0.0065260362 0.192 13076874
0.028785953 0.0065260362 0.192 13340046
0.029688828 0.0065260362 0.192 12682116
0.030751033 0.0065600262 0.193 12747909
0.031658608 0.0065600262 0.193 12617350
0.032734919 0.0065940162 0.19400001 12026244
0.033647198 0.0065940162 0.19400001 11829635
0.034559477 0.0065940162 0.19400001 11961221
0.035654597 0.0066280058 0.19500001 12290186
0.036571577 0.0066280058 0.19500001 11830148
0.037488557 0.0066280058 0.19500001 12159627
0.038405538 0.0066280058 0.19500001 13082012
0.03891921 0.0065600262 0.193 11831441
-0.015293819 0.0073515251 0.19000001 1514009
-0.014248769 0.0072741406 0.18800001 1447446
-0.013506884 0.0073515251 0.19000001 1643798
-0.012679802 0.0073902179 0.19100001 2957862
-0.011781632 0.0073902179 0.19100001 3151900
-0.010883463 0.0073902179 0.19100001 10385269
-0.0099852914 0.0073902179 0.19100001 11304054
-0.009087122 0.0073902179 0.19100001 11433074
-0.0081460774 0.0073515251 0.19000001 11498351
-0.0072526094 0.0073515251 0.19000001 11562348
-0.0063591413 0.0073515251 0.19000001 12087922
-0.0054656737 0.0073515251 0.19000001 12285303
-0.0045722057 0.0073515251 0.19000001 12614268
-0.0036787379 0.0073515251 0.19000001 12416119
-0.0027852703 0.0073515251 0.19000001 12547448
-0.0018918024 0.0073515251 0.19000001 12810620
-0.00099833461 0.0073515251 0.19000001 12876413
-0.00010486686 0.0073515251 0.19000001 12612471
0.00078860088 0.0073515251 0.19000001 12283506
0.0016820688 0.0073515251 0.19000001 12480885
0.0025755367 0.0073515251 0.19000001 12021104
0.0034690043 0.0073515251 0.19000001 12481655
0.0043624719 0.0073515251 0.19000001 12284276
0.0052559399 0.0073515251 0.19000001 13205378
0.0061817733 0.0073902179 0.19100001 13468550
0.0070799435 0.0073902179 0.19100001 13007997
0.0079781143 0.0073902179 0.19100001 12546678
0.0088762837 0.0073902179 0.19100001 12480885
0.0097744539 0.0073902179 0.19100001 13204606
0.010672624 0.0073902179 0.19100001 13665157
0.011570795 0.0073902179 0.19100001 13336192
0.012468965 0.0073902179 0.19100001 12876413
0.013367135 0.0073902179 0.19100001 12876670
0.014265305 0.0073902179 0.19100001 13271430
0.015163477 0.0073902179 0.19100001 13666958
0.016061645 0.0073902179 0.19100001 13601165
0.016959816 0.0073902179 0.19100001 13536401
0.017857987 0.0073902179 0.19100001 12023932
0.018756157 0.0073902179 0.19100001 13405585
0.019654326 0.0073902179 0.19100001 13208206
0.020660101 0.0074289092 0.192 11894145
0.021562973 0.0074289092 0.192 12223110
0.022465847 0.0074289092 0.192 12420489
0.023368718 0.0074289092 0.192 12421002
0.024271591 0.0074289092 0.192 11762305
0.025305582 0.0074676014 0.193 12025477
0.026213158 0.0074676014 0.193 12222340
0.027120734 0.0074676014 0.193 12486282
0.028028307 0.0074676014 0.193 11959938
0.029085808 0.0075062942 0.19400001 12552075
0.029998086 0.0075062942 0.19400001 12222340
0.031069696 0.0075449864 0.19500001 12814475
0.031986676 0.0075449864 0.19500001 12946831
0.032903656 0.0075449864 0.19500001 12027012
0.033820637 0.0075449864 0.19500001 11435390
0.03491576 0.0075836787 0.19600001 11698562
0.036020283 0.007622371 0.19700001 11895941
0.036759123 0.0075836787 0.19600001 12028811
0.037680805 0.0075836787 0.19600001 12753563
0.038405538 0.0075449864 0.19500001 10584454
-0.014476144 0.0082883872 0.19100001 1777181
-0.01364906 0.0083317813 0.192 1448216
-0.012746188 0.0083317813 0.192 1776411
-0.011843315 0.0083317813 0.192 2432803
-0.010940443 0.0083317813 0.192 4073002
-0.01003757 0.0083317813 0.192 9465964
-0.0091346977 0.0083317813 0.192 10056556
-0.0081889508 0.0082883872 0.19100001 10383468
-0.007290781 0.0082883872 0.19100001 11171187
-0.0063926107 0.0082883872 0.19100001 11630453
-0.0054656737 0.0082449932 0.19000001 12089977
-0.0045962702 0.0082883872 0.19100001 11892598
-0.0036980996 0.0082883872 0.19100001 12418172
-0.0027999296 0.0082883872 0.19100001 12089207
-0.0019017593 0.0082883872 0.19100001 12417659
-0.001003589 0.0082883872 0.19100001 12417659
-0.00010541879 0.0082883872 0.19100001 12680061
0.00079275144 0.0082883872 0.19100001 12548475
0.0016909218 0.0082883872 0.19100001 13535370
0.0025890921 0.0082883872 0.19100001 13404556
0.0034872622 0.0082883872 0.19100001 12417661
0.0043854327 0.0082883872 0.19100001 13075337
0.005283603 0.0082883872 0.19100001 13008774
0.0061817733 0.0082883872 0.19100001 13009028
0.0070799435 0.0082883872 0.19100001 13470349
0.0079781143 0.0082883872 0.19100001 13601681
0.0088762837 0.0082883872 0.19100001 13141130
0.0097744539 0.0082883872 0.19100001 13272200
0.010672624 0.0082883872 0.19100001 13995153
0.011570795 0.0082883872 0.19100001 14127509
0.012468965 0.0082883872 0.19100001 13140614
0.013367135 0.0082883872 0.19100001 12943751
0.014265305 0.0082883872 0.19100001 12944264
0.015242865 0.0083317813 0.192 13207690
0.016145736 0.0083317813 0.192 13208460
0.01704861 0.0083317813 0.192 13077647
0.017951483 0.0083317813 0.192 12421002
0.018854355 0.0083317813 0.192 12157830
0.019757228 0.0083317813 0.192 11960451
0.020767706 0.0083751762 0.193 11894658
0.021675281 0.0083751762 0.193 11894658
0.022582857 0.0083751762 0.193 12026244
0.023490431 0.0083751762 0.193 11237244
0.024398006 0.0083751762 0.193 10777206
0.025436699 0.0084185712 0.19400001 10974585
0.026348976 0.0084185712 0.19400001 10776693
0.027401777 0.0084619662 0.19500001 10908279
0.028318757 0.0084619662 0.19500001 11369084
0.029235736 0.0084619662 0.19500001 12158600
0.030307345 0.0085053612 0.19600001 11828865
0.031229028 0.0085053612 0.19600001 11960451
0.032314748 0.0085487552 0.19700001 12026244
0.03324113 0.0085487552 0.19700001 11632769
0.034167517 0.0085487552 0.19700001 11238525
0.035093904 0.0085487552 0.19700001 12225936
0.036203127 0.0085921502 0.19800001 12818840
0.036946669 0.0085487552 0.19700001 12754590
0.037680805 0.0085053612 0.19600001 10585486
0.038799442 0.0085487552 0.19700001 4208977
-0.014779308 0.0093789464 0.19500001 1514779
-0.01372015 0.0092827519 0.193 1448986
-0.012812574 0.0092827519 0.193 1645595
-0.011905 0.0092827519 0.193 2039583
-0.010997425 0.0092827519 0.193 2365727
-0.010089849 0.0092827519 0.193 4534067
-0.0091822743 0.0092827519 0.193 8414055
-0.0082318243 0.0092346547 0.192 10386812
-0.007290781 0.0091865584 0.19100001 10384751
-0.0064260792 0.0092346547 0.192 10778226
-0.0054944404 0.0091865584 0.19100001 10908785
-0.0045962702 0.0091865584 0.19100001 11236980
-0.0036980996 0.0091865584 0.19100001 11170674
-0.0028145888 0.0092346547 0.192 10841455
-0.0019117161 0.0092346547 0.192 11367029
-0.0010088434 0.0092346547 0.192 12090752
-0.00010597071 0.0092346547 0.192 12287617
0.00079690194 0.0092346547 0.192 11892346
0.0016997746 0.0092346547 0.192 11826553
0.0026026473 0.0092346547 0.192 12024445
0.0035055198 0.0092346547 0.192 11498101
0.0044083926 0.0092346547 0.192 12352899
0.0053112651 0.0092346547 0.192 13076622
0.0062141381 0.0092346547 0.192 13208206
0.0071170107 0.0092346547 0.192 12682375
0.0080198841 0.0092346547 0.192 12814475
0.0089227557 0.0092346547 0.192 12748684
0.0098256283 0.0092346547 0.192 13011340
0.010728502 0.0092346547 0.192 12813448
0.011631373 0.0092346547 0.192 12484483
0.012534246 0.0092346547 0.192 12353410
0.013437119 0.0092346547 0.192 12616582
0.014339992 0.0092346547 0.192 12551303
0.015322255 0.0092827519 0.193 12617096
0.016229829 0.0092827519 0.193 12353924
0.017137405 0.0092827519 0.193 12486282
0.01804498 0.0092827519 0.193 11960451
0.018952556 0.0092827519 0.193 12027014
0.01986013 0.0092827519 0.193 11763842
0.020875311 0.0093308492 0.19400001 11566209
0.021787588 0.0093308492 0.19400001 11500416
0.022699866 0.0093308492 0.19400001 10974585
0.023733856 0.0093789464 0.19500001 10514034
0.024650836 0.0093789464 0.19500001 10579827
0.025698934 0.0094270436 0.19600001 11237757
0.026620617 0.0094270436 0.19600001 10777206
0.027542299 0.0094270436 0.19600001 10908792
0.028463982 0.0094270436 0.19600001 11040632
0.02953559 0.0094751408 0.19700001 11764355
0.030616604 0.0095232381 0.19800001 11764355
0.031547692 0.0095232381 0.19800001 12158600
0.032642815 0.0095713353 0.19900002 12817043
0.033409867 0.0095232381 0.19800001 12685971
0.034340955 0.0095232381 0.19800001 11831945
0.035272043 0.0095232381 0.19800001 12424852
0.036203127 0.0095232381 0.19800001 12361115
0.037134215 0.0095232381 0.19800001 8021360
-0.014004506 0.010401526 0.19700001 1646365
-0.012878961 0.010243126 0.19400001 1646365
-0.011905 0.010190327 0.193 1579802
-0.011054406 0.010243126 0.19400001 1777181
-0.010142128 0.010243126 0.19400001 2167832
-0.009229851 0.010243126 0.19400001 5454402
-0.0082746986 0.010190327 0.193 7295828
-0.0073289522 0.010137527 0.192 10057329
-0.0064595486 0.010190327 0.193 9727850
-0.0054944404 0.010084728 0.19100001 9989739
-0.0046203341 0.010137527 0.192 10121325
-0.0037174614 0.010137527 0.192 10909558
-0.0028292481 0.010190327 0.193 10843767
-0.001921673 0.010190327 0.193 10449009
-0.0010140978 0.010190327 0.193 10382448
-0.00010652265 0.010190327 0.193 10842486
0.00080105243 0.010190327 0.193 11040119
0.0017086277 0.010190327 0.193 11499898
0.0026162029 0.010190327 0.193 11434105
0.0035237779 0.010190327 0.193 11499898
0.004431353 0.010190327 0.193 11894145
0.0053389282 0.010190327 0.193 12025731
0.0062465039 0.010190327 0.193 12157315
0.0071540787 0.010190327 0.193 12091522
0.0080616539 0.010190327 0.193 11959938
0.0089692287 0.010190327 0.193 12091524
0.0098768035 0.010190327 0.193 12223110
0.010784379 0.010190327 0.193 12420489
0.011691954 0.010190327 0.193 12092035
0.012599529 0.010190327 0.193 11960449
0.013507104 0.010190327 0.193 11828863
0.01441468 0.010190327 0.193 11960451
0.015401646 0.010243126 0.19400001 12157576
0.016313922 0.010243126 0.19400001 11368060
0.017226201 0.010243126 0.19400001 11433853
0.018138478 0.010243126 0.19400001 11828865
0.019050756 0.010243126 0.19400001 11961221
0.019963032 0.010243126 0.19400001 11172218
0.020982916 0.010295927 0.19500001 11238271
0.021899896 0.010295927 0.19500001 10711927
0.022933885 0.010348726 0.19600001 10777720
0.02397728 0.010401526 0.19700001 10711927
0.024903666 0.010401526 0.19700001 10646134
0.025961168 0.010454325 0.19800001 11303550
0.026892256 0.010454325 0.19800001 10974585
0.027823344 0.010454325 0.19800001 11238271
0.028754432 0.010454325 0.19800001 11567236
0.029835444 0.010507125 0.19900002 11173248
0.030925861 0.010559924 0.2 11041662
0.032025687 0.010612723 0.20100001 12161426
0.032970883 0.010612723 0.20100001 11898256
0.033747341 0.010559924 0.2 12227221
0.034514397 0.010507125 0.19900002 12227219
0.035450187 0.010507125 0.19900002 12491938
0.036385972 0.010507125 0.19900002 5852254
-0.014004506 0.011327911 0.19700001 1646878
-0.013210894 0.011442916 0.19900002 1646878
-0.012275103 0.011442916 0.19900002 1712158
-0.011111388 0.011212907 0.19500001 1514779
-0.010194408 0.011212907 0.19500001 2104349
-0.0093725808 0.011327911 0.19700001 5061441
-0.0082746986 0.011097902 0.193 5256504
-0.0073289522 0.0110404 0.192 6966089
-0.0064595486 0.011097902 0.193 10123894
-0.0054944404 0.010982899 0.19100001 9794929
-0.0046203341 0.0110404 0.192 9926261
-0.0037174614 0.0110404 0.192 10122870
-0.0028292481 0.011097902 0.193 10319735
-0.0019316298 0.011155404 0.19400001 9990770
-0.0010193522 0.011155404 0.19400001 10121843
-0.00010707458 0.011155404 0.19400001 10318193
0.00080520299 0.011155404 0.19400001 11041146
0.0017174807 0.011155404 0.19400001 11172216
0.0026297583 0.011155404 0.19400001 10777458
0.0035420358 0.011155404 0.19400001 11040630
0.0044543133 0.011155404 0.19400001 11500668
0.0053665913 0.011155404 0.19400001 11434875
0.0062788692 0.011155404 0.19400001 11698047
0.0071911463 0.011155404 0.19400001 10974324
0.0081034247 0.011155404 0.19400001 11369084
0.0090157017 0.011155404 0.19400001 11500670
0.0099279787 0.011155404 0.19400001 11435390
0.010840257 0.011155404 0.19400001 11764355
0.011752534 0.011155404 0.19400001 11830146
0.012664812 0.011155404 0.19400001 11303802
0.01357709 0.011155404 0.19400001 11501183
0.014489368 0.011155404 0.19400001 11238011
0.015481035 0.011212907 0.19500001 11435390
0.016398015 0.011212907 0.19500001 11961734
0.017314995 0.011212907 0.19500001 11698562
0.018231975 0.011212907 0.19500001 11435136
0.019148955 0.011212907 0.19500001 11303804
0.020168837 0.011270409 0.19600001 11303804
0.021198126 0.011327911 0.19700001 10974839
0.02212451 0.011327911 0.19700001 10974839
0.023167906 0.011385413 0.19800001 11303804
0.024220705 0.011442916 0.19900002 11567490
0.025156494 0.011442916 0.19900002 11041146
0.026223401 0.011500417 0.2 11041146
0.027299713 0.011557919 0.20100001 11502213
0.028244909 0.011557919 0.20100001 11831691
0.029190104 0.011557919 0.20100001 11700875
0.030285222 0.011615422 0.20200001 12358805
0.031389751 0.011672923 0.20300001 11569804
0.032344349 0.011672923 0.20300001 11704218
0.033134915 0.011615422 0.20200001 15914459
0.034084816 0.011615422 0.20200001 16046305
0.03486127 0.011557919 0.20100001 12494007
-0.013277279 0.012440909 0.2 1777951
-0.012336787 0.012440909 0.2 1777951
-0.011396295 0.012440909 0.2 1777181
-0.010508081 0.012503114 0.20100001 1644825
-0.0095153106 0.012440909 0.2 1708561
-0.0074816393 0.012192091 0.19600001 6112837
-0.0064595486 0.012005477 0.193 6309446
-0.0046443981 0.012005477 0.193 9862268
-0.0037174614 0.011943272 0.192 9993341
-0.0028439073 0.012067682 0.19400001 9861753
-0.0019415867 0.012129886 0.19500001 10057849
-0.0010246066 0.012129886 0.19500001 9925491
-0.00010762651 0.012129886 0.19500001 9728112
0.00080935354 0.012129886 0.19500001 10186866
0.0017263338 0.012129886 0.19500001 11108222
0.0026433137 0.012129886 0.19500001 10450290
0.0035602937 0.012129886 0.19500001 11238523
0.0044772737 0.012129886 0.19500001 11370109
0.005421917 0.012192091 0.19600001 11370109
0.0063435999 0.012192091 0.19600001 11567488
0.0072652819 0.012192091 0.19600001 11567490
0.0081869652 0.012192091 0.19600001 11041662
0.0091086468 0.012192091 0.19600001 11173248
0.010030329 0.012192091 0.19600001 11436420
0.010952013 0.012192091 0.19600001 11568260
0.011873694 0.012192091 0.19600001 10909560
0.012795377 0.012192091 0.19600001 11172732
0.01371706 0.012192091 0.19600001 11370111
0.014638742 0.012192091 0.19600001 11370111
0.015560426 0.012192091 0.19600001 10909560
0.0165662 0.012254296 0.19700001 11698822
0.017492585 0.012254296 0.19700001 11961994
0.01841897 0.012254296 0.19700001 11106685
0.019345356 0.012254296 0.19700001 11106939
0.020374643 0.012316501 0.19800001 11041916
0.021305731 0.012316501 0.19800001 11436672
0.022349125 0.012378705 0.19900002 11239293
0.023401923 0.012440909 0.2 11699846
0.024464127 0.012503114 0.20100001 11568773
0.025409322 0.012503114 0.20100001 11436933
0.026485635 0.012565318 0.20200001 11436933
0.027707173 0.012689727 0.20400001 11437703
0.028806997 0.012751932 0.20500001 11569806
0.029771002 0.012751932 0.20500001 11176330
0.030735005 0.012751932 0.20500001 12426910
0.031853639 0.012814137 0.20600002 16773355
0.032663014 0.012751932 0.20500001 16776439
0.033462986 0.012689727 0.20400001 15588588
-0.0096104639 0.013515215 0.20200001 1316113
-0.0086605661 0.013515215 0.20200001 1774871
-0.0075579826 0.013247588 0.19800001 2232855
-0.0066938326 0.013381401 0.2 5718088
-0.0056382739 0.013113773 0.19600001 5520195
-0.0028585668 0.013046866 0.19500001 9666181
-0.0019515436 0.013113773 0.19600001 9862784
-0.0010298609 0.013113773 0.19600001 10190720
-0.00010817844 0.013113773 0.19600001 10321534
0.0008135041 0.013113773 0.19600001 10452605
0.0017351868 0.013113773 0.19600001 10780800
0.0026568694 0.013113773 0.19600001 11043972
0.0035968097 0.013180681 0.19700001 11109765
0.0045231949 0.013180681 0.19700001 11109505
0.0054495796 0.013180681 0.19700001 10977919
0.0063759652 0.013180681 0.19700001 10846333
0.0073023499 0.013180681 0.19700001 10912126
0.0082287351 0.013180681 0.19700001 11109251
0.0091551198 0.013180681 0.19700001 10846079
0.010081504 0.013180681 0.19700001 11042945
0.011063768 0.013247588 0.19800001 11240324
0.011994855 0.013247588 0.19800001 11107968
0.012925942 0.013247588 0.19800001 11107968
0.01385703 0.013247588 0.19800001 10713210
0.014788118 0.013247588 0.19800001 10647417
0.015719205 0.013247588 0.19800001 10647417
0.016650293 0.013247588 0.19800001 10515831
0.017670175 0.013314495 0.19900002 10384245
0.018605966 0.013314495 0.19900002 10515831
0.019541755 0.013314495 0.19900002 10515831
0.020580446 0.013381401 0.2 11832715
0.021520939 0.013381401 0.2 11635336
0.022573739 0.013448308 0.20100001 11372164
0.023635944 0.013515215 0.20200001 11372423
0.024707552 0.013582123 0.20300001 11175560
0.025788568 0.01364903 0.20400001 11043974
0.026878987 0.013715937 0.20500001 12096660
0.028114632 0.013849751 0.20700002 13148573
0.029369084 0.013983564 0.20900001 14664124
0.030206675 0.013916657 0.208 16775409
0.031034859 0.013849751 0.20700002 16776693
0.032008268 0.013849751 0.20700002 16511735
0.032981679 0.013849751 0.20700002 9340318
-0.0066603641 0.014250285 0.19900002 1576722
-0.0056670406 0.014107066 0.19700001 2562592
-0.004716591 0.014035456 0.19600001 4994880
-0.0037949085 0.014035456 0.19600001 6573912
-0.0028732261 0.014035456 0.19600001 10982811
-0.0019515436 0.014035456 0.19600001 12693164
-0.0010351153 0.014107066 0.19700001 10257792
-0.00010873038 0.014107066 0.19700001 10323587
0.0008176546 0.014107066 0.19700001 10651782
0.0017528927 0.014178676 0.19800001 10388608
0.0026839804 0.014178676 0.19800001 10322302
0.0036150676 0.014178676 0.19800001 10518911
0.0045691156 0.014250285 0.19900002 10847876
0.0055049057 0.014250285 0.19900002 10782083
0.0064406958 0.014250285 0.19900002 10650499
0.0073764855 0.014250285 0.19900002 10782085
0.0083122756 0.014250285 0.19900002 10650499
0.0092480658 0.014250285 0.19900002 10649986
0.010183855 0.014250285 0.19900002 10847365
0.011175523 0.014321893 0.2 10715779
0.012116014 0.014321893 0.2 11109765
0.013056506 0.014321893 0.2 11175558
0.013996999 0.014321893 0.2 10978179
0.014937492 0.014321893 0.2 10452605
0.015877984 0.014321893 0.2 10584191
0.016818477 0.014321893 0.2 10255480
0.017758969 0.014321893 0.2 10188917
0.018699462 0.014321893 0.2 10188917
0.019639954 0.014321893 0.2 11175044
0.020683348 0.014393503 0.20100001 11504523
0.021736149 0.014465113 0.20200001 11438216
0.022798354 0.014536723 0.20300001 11307146
0.023869963 0.014608332 0.20400001 11044746
0.024950977 0.014679941 0.20500001 11308431
0.026041396 0.014751552 0.20600002 11901338
0.027272336 0.01489477 0.208 13151405
0.028386269 0.014966379 0.20900001 14928327
0.029650128 0.015109599 0.21100001 16775667
0.0303519 0.014966379 0.20900001 15524842
-0.0056958073 0.015109763 0.19800001 1710361
-0.004716591 0.014957139 0.19600001 1774871
-0.0037949085 0.014957139 0.19600001 1838867
-0.0028732261 0.014957139 0.19600001 3548717
-0.0019515436 0.014957139 0.19600001 6772312
-0.0010351153 0.015033451 0.19700001 9271413
-0.00010928231 0.015109763 0.19800001 11113617
0.00082180515 0.015109763 0.19800001 11114902
0.0017528927 0.015109763 0.19800001 10786196
0.0026839804 0.015109763 0.19800001 10194059
0.0036150676 0.015109763 0.19800001 9929858
0.0045920755 0.015262387 0.2 10455175
0.0055325679 0.015262387 0.2 10322819
0.0064730607 0.015262387 0.2 10257026
0.0074135526 0.015262387 0.2 10322819
0.0083540455 0.015262387 0.2 10191233
0.0092945378 0.015262387 0.2 10257026
0.010286205 0.015338698 0.20100001 10388612
0.0112314 0.015338698 0.20100001 10453892
0.012176595 0.015338698 0.20100001 10847878
0.013121789 0.015338698 0.20100001 10847876
0.014066984 0.015338698 0.20100001 10782083
0.01501218 0.015338698 0.20100001 10650497
0.015957374 0.015338698 0.20100001 10782083
0.016902568 0.015338698 0.20100001 10782083
0.017847763 0.015338698 0.20100001 10979462
0.018792959 0.015338698 0.20100001 11045257
0.019738154 0.015338698 0.20100001 11176330
0.02078625 0.015415011 0.20200001 11439502
0.021843754 0.015491323 0.20300001 11505808
0.02291066 0.015567635 0.20400001 11440535
0.023986973 0.015643947 0.20500001 12427682
0.025194401 0.01579657 0.20700002 14797511
0.026294224 0.015872883 0.208 16774384
0.027534571 0.016025506 0.21000001 16775679
0.028657908 0.016101819 0.21100001 15984880
0.029790651 0.016178131 0.21200001 12957136
-0.004716591 0.015878823 0.19600001 1514009
-0.0037949085 0.015878823 0.19600001 1382423
-0.0028732261 0.015878823 0.19600001 1644827
-0.0019515436 0.015878823 0.19600001 1511701
-0.0010351153 0.015959837 0.19700001 2168346
-0.00010928231 0.01604085 0.19800001 7627883
0.00082180515 0.01604085 0.19800001 9930889
0.0017528927 0.01604085 0.19800001 10851989
0.002711091 0.01620288 0.2 12497586
0.0036698412 0.016283894 0.20100001 13682374
0.0045920755 0.01620288 0.2 12891572
0.0055602309 0.016283894 0.20100001 11047826
0.006505426 0.016283894 0.20100001 9797245
0.0074506206 0.016283894 0.20100001 10192003
0.0083958162 0.016283894 0.20100001 10322819
0.0093410108 0.016283894 0.20100001 10256772
0.01033738 0.016364908 0.20200001 10257026
0.011287278 0.016364908 0.20200001 10322819
0.012237174 0.016364908 0.20200001 10585989
0.013187071 0.016364908 0.20200001 10651782
0.014136969 0.016364908 0.20200001 10585989
0.015086867 0.016364908 0.20200001 10783368
0.016036766 0.016364908 0.20200001 10717060
0.016986661 0.016364908 0.20200001 10979462
0.017936559 0.016364908 0.20200001 11308427
0.018886456 0.016364908 0.20200001 11374222
0.019836355 0.016364908 0.20200001 11374222
0.02078625 0.016364908 0.20200001 11243919
0.021843754 0.016445924 0.20300001 12756647
0.02291066 0.016526937 0.20400001 13810117
0.024103982 0.016688967 0.20600002 14602209
0.025316112 0.016850995 0.208 11050932
0.02642064 0.016932009 0.20900001 6380921
0.027665688 0.017094038 0.21100001 4541811
0.028793728 0.017175052 0.21200001 5727888
0.029931173 0.017256068 0.21300001 1982579
-0.0038142703 0.016886221 0.19700001 1383195
-0.0028732261 0.016800504 0.19600001 1514009
-0.0019515436 0.016800504 0.19600001 1644825
-0.0010351153 0.016886221 0.19700001 1644825
-0.00010928231 0.016971938 0.19800001 1841177
0.00082180515 0.016971938 0.19800001 1839894
0.0017528927 0.016971938 0.19800001 2035729
0.002711091 0.017143371 0.2 2497311
0.0036515833 0.017143371 0.2 4471103
0.0046150358 0.017229088 0.20100001 9798020
0.0055602309 0.017229088 0.20100001 12824237
0.006505426 0.017229088 0.20100001 13745600
0.0074506206 0.017229088 0.20100001 13090237
0.0083958162 0.017229088 0.20100001 12037549
0.0093410108 0.017229088 0.20100001 11443613
0.01033738 0.017314805 0.20200001 11442582
0.011287278 0.017314805 0.20200001 11244687
0.012237174 0.017314805 0.20200001 10914952
0.013187071 0.017314805 0.20200001 10784136
0.014136969 0.017314805 0.20200001 10784136
0.015086867 0.017314805 0.20200001 11113101
0.016036766 0.017314805 0.20200001 11178894
0.016986661 0.017314805 0.20200001 10915722
0.017936559 0.017314805 0.20200001 10718343
0.018886456 0.017314805 0.20200001 11047826
0.019836355 0.017314805 0.20200001 13221823
0.02078625 0.017314805 0.20200001 8353932
