# .PCD v0.7 - Point Cloud Data file format
VERSION 0.7
FIELDS x y z rgb
SIZE 4 4 4 4
TYPE F F F U
COUNT 1 1 1 1
WIDTH 1083
HEIGHT 1
VIEWPOINT 0 0 0 1 0 0 0
POINTS 1083
DATA ascii
0.0099279787 -0.017125202 0.19400001 6112067
0.010784379 -0.017036928 0.193 6769482
0.011631373 -0.016948653 0.192 6966861
0.012403682 -0.016772106 0.19000001 7098447
0.01329715 -0.016772106 0.19000001 7491922
0.014115931 -0.016683832 0.18900001 8609117
0.015004696 -0.016683832 0.18900001 8477531
0.015893461 -0.016683832 0.18900001 8017496
0.016782226 -0.016683832 0.18900001 8413024
0.017670993 -0.016683832 0.18900001 8150367
0.018559758 -0.016683832 0.18900001 8610405
0.019448522 -0.016683832 0.18900001 9992058
0.020337287 -0.016683832 0.18900001 8807014
0.021226054 -0.016683832 0.18900001 9596530
0.022114819 -0.016683832 0.18900001 10057081
0.023003584 -0.016683832 0.18900001 10977154
0.024781115 -0.016683832 0.18900001 10647156
0.02566988 -0.016683832 0.18900001 10975091
0.028486101 -0.016772106 0.19000001 10777720
0.029379569 -0.016772106 0.19000001 10910076
0.030273039 -0.016772106 0.19000001 11040892
0.031166507 -0.016772106 0.19000001 10974585
0.032228712 -0.016860379 0.19100001 11697027
0.033126883 -0.016860379 0.19100001 11764619
0.034025054 -0.016860379 0.19100001 11634581
0.035288908 -0.017036928 0.193 11437453
0.036384027 -0.017125202 0.19400001 11766672
0.037296306 -0.017125202 0.19400001 11241355
0.038405538 -0.017213477 0.19500001 13152434
0.039322518 -0.017213477 0.19500001 13546943
0.040239498 -0.017213477 0.19500001 11374742
0.041156478 -0.017213477 0.19500001 12358809
0.042073458 -0.017213477 0.19500001 13214116
0.042990435 -0.017213477 0.19500001 13411497
0.043907415 -0.017213477 0.19500001 14069175
0.04459453 -0.017125202 0.19400001 13674417
0.045506805 -0.017125202 0.19400001 12162722
0.046658359 -0.017213477 0.19500001 12559278
0.04757534 -0.017213477 0.19500001 11442083
0.04849232 -0.017213477 0.19500001 11178145
0.0494093 -0.017213477 0.19500001 8611196
0.050326277 -0.017213477 0.19500001 7428208
0.0072282143 -0.016296495 0.19500001 5783870
0.0081451945 -0.016296495 0.19500001 5782585
0.0090157017 -0.016212923 0.19400001 6702919
0.0099279787 -0.016212923 0.19400001 7163468
0.010728502 -0.016045779 0.192 7754322
0.011631373 -0.016045779 0.192 7951187
0.012403682 -0.015878636 0.19000001 8344149
0.01329715 -0.015878636 0.19000001 9001309
0.014190618 -0.015878636 0.19000001 10317169
0.015084086 -0.015878636 0.19000001 11435390
0.015893461 -0.015795065 0.18900001 11895941
0.016871022 -0.015878636 0.19000001 12028557
0.01776449 -0.015878636 0.19000001 12160145
0.018657958 -0.015878636 0.19000001 12422033
0.019448522 -0.015795065 0.18900001 11237757
0.020337287 -0.015795065 0.18900001 11172478
0.021226054 -0.015795065 0.18900001 10515831
0.022114819 -0.015795065 0.18900001 10844798
0.023125295 -0.015878636 0.19000001 13541796
0.024018764 -0.015878636 0.19000001 11434875
0.024912233 -0.015878636 0.19000001 11828863
0.025805701 -0.015878636 0.19000001 12091522
0.026699169 -0.015878636 0.19000001 11301238
0.027592637 -0.015878636 0.19000001 12287881
0.028486101 -0.015878636 0.19000001 12223889
0.029379569 -0.015878636 0.19000001 12818085
0.030273039 -0.015878636 0.19000001 12028569
0.031166507 -0.015878636 0.19000001 12619676
0.032228712 -0.01596221 0.19100001 14459568
0.033126883 -0.01596221 0.19100001 16432588
0.034025054 -0.01596221 0.19100001 15512007
0.035288908 -0.016129352 0.193 14329529
0.036196481 -0.016129352 0.193 15186371
0.037296306 -0.016212923 0.19400001 12425115
0.038208585 -0.016212923 0.19400001 16774904
0.039120864 -0.016212923 0.19400001 16775931
0.040239498 -0.016296495 0.19500001 14200243
0.041156478 -0.016296495 0.19500001 15313584
0.042073458 -0.016296495 0.19500001 16766167
0.042990435 -0.016296495 0.19500001 16765394
0.043682251 -0.016212923 0.19400001 16766939
0.04459453 -0.016212923 0.19400001 16502483
0.045506805 -0.016212923 0.19400001 15255757
0.046658359 -0.016296495 0.19500001 16776187
0.04757534 -0.016296495 0.19500001 16775675
0.04849232 -0.016296495 0.19500001 16503514
0.0494093 -0.016296495 0.19500001 16770803
0.050326277 -0.016296495 0.19500001 15974866
0.051243261 -0.016296495 0.19500001 14199227
0.052160237 -0.016296495 0.19500001 11701925
0.053077217 -0.016296495 0.19500001 8416395
0.054271095 -0.016380068 0.19600001 4933225
0.0055049057 -0.015694994 0.19900002 5651514
0.0063112346 -0.015379516 0.19500001 5914686
0.0072282143 -0.015379516 0.19500001 6702406
0.0081034247 -0.015300647 0.19400001 7622738
0.0089692287 -0.015221777 0.193 7753810
0.0098768035 -0.015221777 0.193 7555916
0.010728502 -0.015142908 0.192 9003362
0.011570795 -0.01506404 0.19100001 9265764
0.012403682 -0.01498517 0.19000001 10580341
0.01329715 -0.01498517 0.19000001 11961221
0.014190618 -0.01498517 0.19000001 13473177
0.015084086 -0.01498517 0.19000001 13538200
0.015977552 -0.01498517 0.19000001 14064544
0.016871022 -0.01498517 0.19000001 11894658
0.01776449 -0.01498517 0.19000001 12683922
0.018657958 -0.01498517 0.19000001 12420750
0.019551424 -0.01498517 0.19000001 11105658
0.020444892 -0.01498517 0.19000001 10909306
0.02133836 -0.01498517 0.19000001 14332595
0.022231828 -0.01498517 0.19000001 14200493
0.023125295 -0.01498517 0.19000001 14593968
0.024018764 -0.01498517 0.19000001 12223108
0.024912233 -0.01498517 0.19000001 12552073
0.025805701 -0.01498517 0.19000001 12683661
0.026699169 -0.01498517 0.19000001 13077397
0.027592637 -0.01498517 0.19000001 12353674
0.028486101 -0.01498517 0.19000001 10579064
0.029379569 -0.01498517 0.19000001 16770287
0.030273039 -0.01498517 0.19000001 16771317
0.031166507 -0.01498517 0.19000001 16769775
0.032228712 -0.01506404 0.19100001 16767201
0.033126883 -0.01506404 0.19100001 16764626
0.034025054 -0.01506404 0.19100001 15908549
0.035106063 -0.015142908 0.192 15580110
0.036008935 -0.015142908 0.192 16503265
0.037104059 -0.015221777 0.193 11833490
0.038011633 -0.015221777 0.193 16775668
0.039120864 -0.015300647 0.19400001 16775673
0.040033139 -0.015300647 0.19400001 15318461
0.040945418 -0.015300647 0.19400001 13340296
0.041857697 -0.015300647 0.19400001 16237246
0.042769972 -0.015300647 0.19400001 16767190
0.043682251 -0.015300647 0.19400001 16767966
0.04459453 -0.015300647 0.19400001 16767967
0.045741379 -0.015379516 0.19500001 16771565
0.046658359 -0.015379516 0.19500001 16775935
0.04757534 -0.015379516 0.19500001 16774909
0.04849232 -0.015379516 0.19500001 15643072
0.0494093 -0.015379516 0.19500001 15838141
0.050326277 -0.015379516 0.19500001 16166590
0.051243261 -0.015379516 0.19500001 16035002
0.052427728 -0.015458386 0.19600001 15118013
0.053349406 -0.015458386 0.19600001 13674166
0.054271095 -0.015458386 0.19600001 14334408
0.054911178 -0.015379516 0.19500001 12164270
0.055828162 -0.015379516 0.19500001 8151679
0.0045461552 -0.014685038 0.19800001 5979194
0.0062141381 -0.014240035 0.192 6832708
0.0071540787 -0.014314203 0.193 7752525
0.0080198841 -0.014240035 0.192 8145486
0.0089227557 -0.014240035 0.192 10316142
0.0098256283 -0.014240035 0.192 12093068
0.010672624 -0.014165869 0.19100001 11106685
0.011510214 -0.014091702 0.19000001 14462898
0.012403682 -0.014091702 0.19000001 14266034
0.01329715 -0.014091702 0.19000001 16172750
0.014190618 -0.014091702 0.19000001 14197163
0.015084086 -0.014091702 0.19000001 13800858
0.015977552 -0.014091702 0.19000001 14261409
0.016871022 -0.014091702 0.19000001 12880016
0.01776449 -0.014091702 0.19000001 12748430
0.018657958 -0.014091702 0.19000001 13473438
0.019551424 -0.014091702 0.19000001 12684692
0.020444892 -0.014091702 0.19000001 10777722
0.02133836 -0.014091702 0.19000001 13542311
0.022231828 -0.014091702 0.19000001 13410723
0.023125295 -0.014091702 0.19000001 14461614
0.024018764 -0.014091702 0.19000001 11893121
0.024912233 -0.014091702 0.19000001 12353672
0.025805701 -0.014091702 0.19000001 12353158
0.026699169 -0.014091702 0.19000001 11759992
0.027592637 -0.014091702 0.19000001 10706789
0.028486101 -0.014091702 0.19000001 10511722
0.029379569 -0.014091702 0.19000001 16699092
0.030273039 -0.014091702 0.19000001 16766170
0.031166507 -0.014091702 0.19000001 16768231
0.032228712 -0.014165869 0.19100001 13472927
0.033126883 -0.014165869 0.19100001 12484231
0.034025054 -0.014165869 0.19100001 13997470
0.035106063 -0.014240035 0.192 12813459
0.036008935 -0.014240035 0.192 13274524
0.036911808 -0.014240035 0.192 11828613
0.03781468 -0.014240035 0.192 16774386
0.03891921 -0.014314203 0.193 16775665
0.039826784 -0.014314203 0.193 12883088
0.040945418 -0.014388369 0.19400001 13995919
0.041857697 -0.014388369 0.19400001 13141384
0.042769972 -0.014388369 0.19400001 13602194
0.043682251 -0.014388369 0.19400001 13273747
0.04459453 -0.014388369 0.19400001 12025994
0.045741379 -0.014462536 0.19500001 16769005
0.046658359 -0.014462536 0.19500001 16773628
0.047819316 -0.014536703 0.19600001 16769260
0.048740998 -0.014536703 0.19600001 15245488
0.049662679 -0.014536703 0.19600001 13731477
0.050584361 -0.014536703 0.19600001 15376302
0.051506046 -0.014536703 0.19600001 14390947
0.052427728 -0.014536703 0.19600001 14985396
0.053349406 -0.014536703 0.19600001 16438236
0.054271095 -0.014536703 0.19600001 16775166
0.055192772 -0.014536703 0.19600001 16774399
0.056114458 -0.014536703 0.19600001 15054801
0.057036139 -0.014536703 0.19600001 13145257
0.057957824 -0.014536703 0.19600001 8939396
0.0025755367 -0.013198234 0.19000001 6177345
0.0034690043 -0.013198234 0.19000001 5913401
0.0044083926 -0.013337162 0.192 6371642
0.0052559399 -0.013198234 0.19000001 7028291
0.0061817733 -0.013267699 0.19100001 8540758
0.0071170107 -0.013337162 0.192 13277342
0.0079781143 -0.013267699 0.19100001 13211034
0.0088762837 -0.013267699 0.19100001 12750483
0.0097744539 -0.013267699 0.19100001 12158346
0.010616747 -0.013198234 0.19000001 12026244
0.011510214 -0.013198234 0.19000001 13870245
0.012403682 -0.013198234 0.19000001 13869991
0.01329715 -0.013198234 0.19000001 15384004
0.014190618 -0.013198234 0.19000001 16039883
0.015084086 -0.013198234 0.19000001 13603739
0.015977552 -0.013198234 0.19000001 14129310
0.016871022 -0.013198234 0.19000001 12353412
0.01776449 -0.013198234 0.19000001 12221313
0.018657958 -0.013198234 0.19000001 11037550
0.019551424 -0.013198234 0.19000001 10248296
0.020444892 -0.013198234 0.19000001 9855591
0.02133836 -0.013198234 0.19000001 13541026
0.022231828 -0.013198234 0.19000001 13870761
0.023125295 -0.013198234 0.19000001 13671585
0.024018764 -0.013198234 0.19000001 10775664
0.024912233 -0.013198234 0.19000001 13208467
0.025805701 -0.013198234 0.19000001 12089725
0.026699169 -0.013198234 0.19000001 11299691
0.027592637 -0.013198234 0.19000001 10246488
0.028486101 -0.013198234 0.19000001 9459284
0.029379569 -0.013198234 0.19000001 14988210
0.030273039 -0.013198234 0.19000001 15843781
0.031166507 -0.013198234 0.19000001 16237514
0.032228712 -0.013267699 0.19100001 11826303
0.033126883 -0.013267699 0.19100001 12023934
0.034025054 -0.013267699 0.19100001 12747657
0.035106063 -0.013337162 0.192 12879243
0.036008935 -0.013337162 0.192 12484744
0.036911808 -0.013337162 0.192 11563642
0.03781468 -0.013337162 0.192 14392993
0.03891921 -0.013406627 0.193 14196382
0.039826784 -0.013406627 0.193 13207688
0.040945418 -0.013476091 0.19400001 14127507
0.041857697 -0.013476091 0.19400001 13272198
0.042769972 -0.013476091 0.19400001 14061714
0.043682251 -0.013476091 0.19400001 13536142
0.04459453 -0.013476091 0.19400001 13996187
0.045741379 -0.013545556 0.19500001 15244716
0.046658359 -0.013545556 0.19500001 15377072
0.048063293 -0.013684485 0.19700001 15312829
0.048989676 -0.013684485 0.19700001 13863581
0.049916063 -0.013684485 0.19700001 13665686
0.050842445 -0.013684485 0.19700001 13206673
0.051768832 -0.013684485 0.19700001 13075600
0.052695215 -0.013684485 0.19700001 12880020
0.053621598 -0.013684485 0.19700001 15451855
0.054547988 -0.013684485 0.19700001 16774905
0.055192772 -0.013615021 0.19600001 16770030
0.056114458 -0.013615021 0.19600001 15643591
0.057036139 -0.013615021 0.19600001 14852013
0.057957824 -0.013615021 0.19600001 15905984
0.05917991 -0.013684485 0.19700001 14461880
0.0601063 -0.013684485 0.19700001 9531785
0.061032683 -0.013684485 0.19700001 7497344
0.061959065 -0.013684485 0.19700001 6710906
0.0016820688 -0.012304766 0.19000001 5847095
0.0025755367 -0.012304766 0.19000001 6902353
0.0034872622 -0.012369528 0.19100001 10256509
0.0043854327 -0.012369528 0.19100001 10121327
0.005283603 -0.012369528 0.19100001 11236728
0.0061817733 -0.012369528 0.19100001 13539229
0.0070799435 -0.012369528 0.19100001 15118263
0.0079781143 -0.012369528 0.19100001 14920371
0.0088298116 -0.012304766 0.19000001 12748430
0.0097232787 -0.012304766 0.19000001 14460072
0.010616747 -0.012304766 0.19000001 13340819
0.011510214 -0.012304766 0.19000001 13145493
0.012403682 -0.012304766 0.19000001 13343387
0.01329715 -0.012304766 0.19000001 14527407
0.014190618 -0.012304766 0.19000001 15644096
0.015084086 -0.012304766 0.19000001 13404563
0.015977552 -0.012304766 0.19000001 14193048
0.016871022 -0.012304766 0.19000001 11760242
0.01776449 -0.012304766 0.19000001 12089977
0.018657958 -0.012304766 0.19000001 12353147
0.019551424 -0.012304766 0.19000001 10840425
0.020444892 -0.012304766 0.19000001 9723228
0.02133836 -0.012304766 0.19000001 13803677
0.022231828 -0.012304766 0.19000001 11172470
0.023125295 -0.012304766 0.19000001 10579818
0.024018764 -0.012304766 0.19000001 10053474
0.024912233 -0.012304766 0.19000001 11039088
0.025805701 -0.012304766 0.19000001 9723228
0.026699169 -0.012304766 0.19000001 8671053
0.027592637 -0.012304766 0.19000001 8475471
0.028486101 -0.012304766 0.19000001 7621445
0.029379569 -0.012304766 0.19000001 9002844
0.030273039 -0.012304766 0.19000001 9002846
0.031166507 -0.012304766 0.19000001 9395040
0.032228712 -0.012369528 0.19100001 11761789
0.033126883 -0.012369528 0.19100001 12682375
0.034025054 -0.012369528 0.19100001 12287617
0.035106063 -0.012434289 0.192 11499387
0.036008935 -0.012434289 0.192 10317423
0.036911808 -0.012434289 0.192 8673114
0.038011633 -0.012499051 0.193 8342606
0.03891921 -0.012499051 0.193 9197143
0.039826784 -0.012499051 0.193 8999505
0.040945418 -0.012563813 0.19400001 9524050
0.041857697 -0.012563813 0.19400001 10707554
0.042769972 -0.012563813 0.19400001 11168105
0.043682251 -0.012563813 0.19400001 11431277
0.04459453 -0.012563813 0.19400001 11299178
0.045741379 -0.012628575 0.19500001 13468550
0.046658359 -0.012628575 0.19500001 13337993
0.04830727 -0.012822862 0.19800001 14325417
0.049487036 -0.012887623 0.19900002 15574720
0.050169446 -0.012822862 0.19800001 14389409
0.050842445 -0.012758099 0.19700001 12481408
0.052031621 -0.012822862 0.19800001 13074569
0.052962705 -0.012822862 0.19800001 12287883
0.05389379 -0.012822862 0.19800001 16769261
0.054824881 -0.012822862 0.19800001 16774142
0.055474371 -0.012758099 0.19700001 14658230
0.056400757 -0.012758099 0.19700001 14720425
0.05732714 -0.012758099 0.19700001 15377840
0.058253527 -0.012758099 0.19700001 16364735
0.05917991 -0.012758099 0.19700001 16168641
0.0601063 -0.012758099 0.19700001 14525615
0.061032683 -0.012758099 0.19700001 14266816
0.061959065 -0.012758099 0.19700001 8551304
0.062885456 -0.012758099 0.19700001 7832719
0.0016820688 -0.011411298 0.19000001 6832958
0.0025755367 -0.011411298 0.19000001 5781817
0.0034872622 -0.011471358 0.19100001 7358537
0.0043854327 -0.011471358 0.19100001 11039347
0.005283603 -0.011471358 0.19100001 13801370
0.0061494079 -0.011411298 0.19000001 13867935
0.0070428755 -0.011411298 0.19000001 12552588
0.0079363436 -0.011411298 0.19000001 11433594
0.0088298116 -0.011411298 0.19000001 11827582
0.0097232787 -0.011411298 0.19000001 12088955
0.010616747 -0.011411298 0.19000001 11693686
0.011510214 -0.011411298 0.19000001 13010827
0.012403682 -0.011411298 0.19000001 13011594
0.01329715 -0.011411298 0.19000001 12747907
0.014190618 -0.011411298 0.19000001 12287358
0.015084086 -0.011411298 0.19000001 11760762
0.015893461 -0.011351239 0.18900001 13470610
0.016782226 -0.011351239 0.18900001 11037037
0.017670993 -0.011351239 0.18900001 10118245
0.019551424 -0.011411298 0.19000001 7490638
0.020444892 -0.011411298 0.19000001 6701120
0.02133836 -0.011411298 0.19000001 5122088
0.022231828 -0.011411298 0.19000001 3870990
0.023125295 -0.011411298 0.19000001 1640456
0.024018764 -0.011411298 0.19000001 1639940
0.024912233 -0.011411298 0.19000001 1770759
0.026558645 -0.011351239 0.18900001 1705733
0.027592637 -0.011411298 0.19000001 1443590
0.028486101 -0.011411298 0.19000001 1443844
0.029379569 -0.011411298 0.19000001 1574915
0.030273039 -0.011411298 0.19000001 1509383
0.031166507 -0.011411298 0.19000001 1640458
0.032059975 -0.011411298 0.19000001 1638408
0.032953441 -0.011411298 0.19000001 1966603
0.034025054 -0.011471358 0.19100001 1966854
0.034923222 -0.011471358 0.19100001 1573893
0.04879522 -0.012011892 0.2 10444648
0.05023307 -0.012132011 0.20200001 12286602
0.050422825 -0.011951834 0.19900002 12154496
0.05110053 -0.011891774 0.19800001 13205635
0.052557189 -0.012011892 0.2 11167590
0.053230193 -0.011951834 0.19900002 13735063
0.054165982 -0.011951834 0.19900002 11695228
0.054824881 -0.011891774 0.19800001 13470360
0.055755965 -0.011891774 0.19800001 14456738
0.056687057 -0.011891774 0.19800001 14588576
0.05732714 -0.011831715 0.19700001 14062232
0.058253527 -0.011831715 0.19700001 15246508
0.05917991 -0.011831715 0.19700001 15839158
0.0601063 -0.011831715 0.19700001 13601944
0.061032683 -0.011831715 0.19700001 15643842
0.061959065 -0.011831715 0.19700001 13610683
0.062885456 -0.011831715 0.19700001 5130577
0.0016820688 -0.010517831 0.19000001 5848378
0.0025755367 -0.010517831 0.19000001 6306362
0.0034690043 -0.010517831 0.19000001 11172732
0.0043624719 -0.010517831 0.19000001 12552075
0.0052559399 -0.010517831 0.19000001 13407384
0.0061494079 -0.010517831 0.19000001 13670556
0.0070428755 -0.010517831 0.19000001 11564926
0.0079363436 -0.010517831 0.19000001 10971757
0.0087833386 -0.010462474 0.18900001 11562865
0.0096721034 -0.010462474 0.18900001 11693166
0.010560869 -0.010462474 0.18900001 11232615
0.011449634 -0.010462474 0.18900001 11167590
0.012338399 -0.010462474 0.18900001 11497840
0.013227165 -0.010462474 0.18900001 11762041
0.014115931 -0.010462474 0.18900001 10052200
0.015004696 -0.010462474 0.18900001 4527389
0.015893461 -0.010462474 0.18900001 2621958
0.051922377 -0.01201247 0.21700001 4198412
0.051478956 -0.011680328 0.21100001 4263438
0.051476464 -0.011458901 0.20700002 4525327
0.051943112 -0.011348186 0.20500001 4458250
0.052390944 -0.011237472 0.20300001 5049358
0.05308276 -0.011182114 0.20200001 6958125
0.053765167 -0.011126758 0.20100001 9654868
0.054165982 -0.011016044 0.19900002 12285305
0.054824881 -0.010960687 0.19800001 12942465
0.055755965 -0.010960687 0.19800001 14784410
0.056687057 -0.010960687 0.19800001 11625574
0.05732714 -0.01090533 0.19700001 12020334
0.058253527 -0.01090533 0.19700001 11823727
0.05917991 -0.01090533 0.19700001 12680063
0.0601063 -0.01090533 0.19700001 13141645
0.061032683 -0.01090533 0.19700001 13274524
0.061959065 -0.01090533 0.19700001 14921917
0.062885456 -0.01090533 0.19700001 6704985
0.064135753 -0.010960687 0.19800001 5723734
0.0016820688 -0.0096243629 0.19000001 6045759
0.0025619811 -0.0095737083 0.18900001 10252659
0.0034507464 -0.0095737083 0.18900001 11434107
0.0043624719 -0.0096243629 0.19000001 12881040
0.0052559399 -0.0096243629 0.19000001 12222340
0.0061494079 -0.0096243629 0.19000001 11498103
0.0070428755 -0.0096243629 0.19000001 11037037
0.0079363436 -0.0096243629 0.19000001 10246492
0.0087833386 -0.0095737083 0.18900001 10772064
0.0096721034 -0.0095737083 0.18900001 12154485
0.010560869 -0.0095737083 0.18900001 12682114
0.011449634 -0.0095737083 0.18900001 10314343
0.012338399 -0.0095737083 0.18900001 3871512
0.013227165 -0.0095737083 0.18900001 1901063
0.014115931 -0.0095737083 0.18900001 1378316
0.015004696 -0.0095737083 0.18900001 1379343
0.051922377 -0.010992035 0.21700001 3673350
0.051966909 -0.010789418 0.21300001 3935752
0.05197382 -0.010586799 0.20900001 4133131
0.052956633 -0.010586799 0.20900001 4133131
0.053423282 -0.01048549 0.20700002 4395276
0.053871121 -0.010384181 0.20500001 4395276
0.054300144 -0.010282871 0.20300001 4787979
0.05443817 -0.010130907 0.2 4917768
0.055101775 -0.010080254 0.19900002 7021861
0.055755965 -0.010029599 0.19800001 9784140
0.056687057 -0.010029599 0.19800001 11560035
0.05732714 -0.0099789444 0.19700001 11691619
0.058253527 -0.0099789444 0.19700001 12217452
0.05917991 -0.0099789444 0.19700001 13072507
0.0601063 -0.0099789444 0.19700001 13994124
0.061032683 -0.0099789444 0.19700001 13404304
0.061959065 -0.0099789444 0.19700001 14130857
0.0016732158 -0.0086849434 0.18900001 5978681
0.0025619811 -0.0086849434 0.18900001 10449779
0.0034507464 -0.0086849434 0.18900001 11368314
0.0043624719 -0.0087308958 0.19000001 11301238
0.0052559399 -0.0087308958 0.19000001 9984864
0.0061494079 -0.0087308958 0.19000001 9391442
0.0070428755 -0.0087308958 0.19000001 9720661
0.0079363436 -0.0087308958 0.19000001 10443867
0.0087833386 -0.0086849434 0.18900001 11761012
0.0096721034 -0.0086849434 0.18900001 7025722
0.010560869 -0.0086849434 0.18900001 2753544
0.011449634 -0.0086849434 0.18900001 1902860
0.012338399 -0.0086849434 0.18900001 1642255
0.013227165 -0.0086849434 0.18900001 1446159
0.014115931 -0.0086849434 0.18900001 1248780
0.014925306 -0.008638991 0.18800001 1248780
0.051966909 -0.0097877933 0.21300001 4068619
0.052222498 -0.009649937 0.21000001 4134412
0.053210016 -0.009649937 0.21000001 4331791
0.053681362 -0.0095580323 0.208 4199692
0.053871121 -0.009420177 0.20500001 4198922
0.054835122 -0.009420177 0.20500001 4395787
0.055254743 -0.0093282722 0.20300001 4657930
0.055101775 -0.0091444645 0.19900002 5051405
0.055755965 -0.0090985121 0.19800001 5246474
0.056687057 -0.0090985121 0.19800001 6099984
0.05732714 -0.0090525597 0.19700001 8071975
0.058253527 -0.0090525597 0.19700001 10241093
0.05917991 -0.0090525597 0.19700001 11096920
0.0601063 -0.0090525597 0.19700001 13070712
0.061032683 -0.0090525597 0.19700001 14256015
0.061959065 -0.0090525597 0.19700001 13800091
0.0016732158 -0.0077961776 0.18900001 6505025
0.0025619811 -0.0077961776 0.18900001 10252398
0.0034507464 -0.0077961776 0.18900001 11105140
0.0043624719 -0.0078374268 0.19000001 9985376
0.0052559399 -0.0078374268 0.19000001 9063760
0.0061494079 -0.0078374268 0.19000001 8996938
0.0070428755 -0.0078374268 0.19000001 9193800
0.0079363436 -0.0078374268 0.19000001 8208190
0.0088298116 -0.0078374268 0.19000001 5117725
0.0097232787 -0.0078374268 0.19000001 2035729
0.010616747 -0.0078374268 0.19000001 1642515
0.011510214 -0.0078374268 0.19000001 1445906
0.012338399 -0.0077961776 0.18900001 1380113
0.013227165 -0.0077961776 0.18900001 1183500
0.051966909 -0.0087861689 0.21300001 3806217
0.052222498 -0.0086624194 0.21000001 3740424
0.052956633 -0.0086211693 0.20900001 3872010
0.053423282 -0.0085386708 0.20700002 4133899
0.053871121 -0.0084561715 0.20500001 4133129
0.054835122 -0.0084561715 0.20500001 4264715
0.055254743 -0.0083736721 0.20300001 4395787
0.055101775 -0.0082086734 0.19900002 4723723
0.055755965 -0.0081674242 0.19800001 5313296
0.056687057 -0.0081674242 0.19800001 5705485
0.05732714 -0.0081261741 0.19700001 7283490
0.058253527 -0.0081261741 0.19700001 12478827
0.05917991 -0.0081261741 0.19700001 15306902
0.0601063 -0.0081261741 0.19700001 13794435
0.061032683 -0.0081261741 0.19700001 14321808
0.061959065 -0.0081261741 0.19700001 13930648
0.0016732158 -0.0069074123 0.18900001 7493203
0.0025619811 -0.0069074123 0.18900001 9989226
0.0034507464 -0.0069074123 0.18900001 10775662
0.0043624719 -0.0069439597 0.19000001 10379874
0.0052559399 -0.0069439597 0.19000001 9129807
0.0061494079 -0.0069439597 0.19000001 9721429
0.0070428755 -0.0069439597 0.19000001 9589073
0.0079363436 -0.0069439597 0.19000001 10904422
0.0087833386 -0.0069074123 0.18900001 6563628
0.0096721034 -0.0069074123 0.18900001 2885130
0.010560869 -0.0069074123 0.18900001 1968138
0.011449634 -0.0069074123 0.18900001 1576975
0.012338399 -0.0069074123 0.18900001 1380366
0.013227165 -0.0069074123 0.18900001 1314573
0.014115931 -0.0069074123 0.18900001 1380879
0.051478956 -0.0077114501 0.21100001 3739654
0.05197382 -0.0076383553 0.20900001 3937033
0.052449875 -0.0075652613 0.20700002 4002313
0.052907113 -0.0074921669 0.20500001 4002313
0.053608336 -0.00745562 0.20400001 4329994
0.054300144 -0.0074190726 0.20300001 4461067
0.054710358 -0.0073459782 0.20100001 4853772
0.054824881 -0.0072363368 0.19800001 5048841
0.055755965 -0.0072363368 0.19800001 6034966
0.056687057 -0.0072363368 0.19800001 11955820
0.05732714 -0.0071997899 0.19700001 14191753
0.058253527 -0.0071997899 0.19700001 14847630
0.05917991 -0.0071997899 0.19700001 13661818
0.0601063 -0.0071997899 0.19700001 14911631
0.061032683 -0.0071997899 0.19700001 14058636
0.061959065 -0.0071997899 0.19700001 14587808
0.0016732158 -0.006018647 0.18900001 10717575
0.0025619811 -0.006018647 0.18900001 9595753
0.0034507464 -0.006018647 0.18900001 10512744
0.0043624719 -0.0060504917 0.19000001 10380388
0.0052559399 -0.0060504917 0.19000001 10840939
0.0061494079 -0.0060504917 0.19000001 11300976
0.0070428755 -0.0060504917 0.19000001 11366256
0.0079363436 -0.0060504917 0.19000001 10839142
0.0087833386 -0.006018647 0.18900001 11759477
0.0096721034 -0.006018647 0.18900001 11366779
0.010560869 -0.006018647 0.18900001 10119792
0.011449634 -0.006018647 0.18900001 4399653
0.012338399 -0.006018647 0.18900001 1836554
0.013227165 -0.006018647 0.18900001 1574925
0.014115931 -0.006018647 0.18900001 2036246
0.015004696 -0.006018647 0.18900001 1709591
0.015893461 -0.006018647 0.18900001 1512982
0.05144383 -0.0068466086 0.215 4067338
0.050747026 -0.0066236956 0.208 4198410
0.051227786 -0.0065600066 0.20600002 4329481
0.051943112 -0.0065281619 0.20500001 4394504
0.052390944 -0.0064644725 0.20300001 4394504
0.05308276 -0.0064326278 0.20200001 4590854
0.053765167 -0.0064007831 0.20100001 4916737
0.054165982 -0.0063370941 0.19900002 6889757
0.054824881 -0.0063052489 0.19800001 10968666
0.055755965 -0.0063052489 0.19800001 12217963
0.056400757 -0.0062734042 0.19700001 12085866
0.05732714 -0.0062734042 0.19700001 12019049
0.058253527 -0.0062734042 0.19700001 13332853
0.05917991 -0.0062734042 0.19700001 14449794
0.0601063 -0.0062734042 0.19700001 15569563
0.061032683 -0.0062734042 0.19700001 16361907
0.061959065 -0.0062734042 0.19700001 15246254
0.062885456 -0.0062734042 0.19700001 4725286
0.0025619811 -0.0051298817 0.18900001 14267831
0.0034690043 -0.0051570241 0.19000001 13345952
0.0043624719 -0.0051570241 0.19000001 12290697
0.0052559399 -0.0051570241 0.19000001 10841455
0.0061494079 -0.0051570241 0.19000001 12156031
0.0070428755 -0.0051570241 0.19000001 12616582
0.0079363436 -0.0051570241 0.19000001 12418692
0.0088298116 -0.0051570241 0.19000001 12352897
0.0097232787 -0.0051570241 0.19000001 12287104
0.010616747 -0.0051570241 0.19000001 11300724
0.011510214 -0.0051570241 0.19000001 10644078
0.012403682 -0.0051570241 0.19000001 10184040
0.01329715 -0.0051570241 0.19000001 10053485
0.014190618 -0.0051570241 0.19000001 8474969
0.015084086 -0.0051570241 0.19000001 5318186
0.015893461 -0.0051298817 0.18900001 3543572
0.016782226 -0.0051298817 0.18900001 2820619
0.017670993 -0.0051298817 0.18900001 2690829
0.018559758 -0.0051298817 0.18900001 2364946
0.019448522 -0.0051298817 0.18900001 2234390
0.024912233 -0.0051570241 0.19000001 2498594
0.025805701 -0.0051570241 0.19000001 2695975
0.026699169 -0.0051570241 0.19000001 3157037
0.027592637 -0.0051570241 0.19000001 3222830
0.028486101 -0.0051570241 0.19000001 3157037
0.029379569 -0.0051570241 0.19000001 2959145
0.04597595 -0.0053198775 0.19600001 3999748
0.047136907 -0.0053470195 0.19700001 4591372
0.049283173 -0.0054827309 0.20200001 5577497
0.05023307 -0.0054827309 0.20200001 7286316
0.050929584 -0.0054555885 0.20100001 8206387
0.051874775 -0.0054555885 0.20100001 10705753
0.052557189 -0.005428446 0.2 10244945
0.053230193 -0.0054013045 0.19900002 10573140
0.05389379 -0.005374162 0.19800001 10638931
0.054824881 -0.005374162 0.19800001 11098969
0.055755965 -0.005374162 0.19800001 11691106
0.056400757 -0.0053470195 0.19700001 12085616
0.05732714 -0.0053470195 0.19700001 13269386
0.058253527 -0.0053470195 0.19700001 15376043
0.05917991 -0.0053470195 0.19700001 16625594
0.0601063 -0.0053470195 0.19700001 16761035
0.061032683 -0.0053470195 0.19700001 15508910
0.061959065 -0.0053470195 0.19700001 13472405
0.062885456 -0.0053470195 0.19700001 2688011
0.0034872622 -0.0042859963 0.19100001 10582144
0.0043854327 -0.0042859963 0.19100001 10842486
0.005283603 -0.0042859963 0.19100001 11236728
0.0061817733 -0.0042859963 0.19100001 12024959
0.0070428755 -0.0042635561 0.19000001 12485510
0.0079363436 -0.0042635561 0.19000001 12419203
0.0088298116 -0.0042635561 0.19000001 12616582
0.0097232787 -0.0042635561 0.19000001 12813448
0.010616747 -0.0042635561 0.19000001 12812932
0.011510214 -0.0042635561 0.19000001 11234929
0.012403682 -0.0042635561 0.19000001 10973302
0.01329715 -0.0042635561 0.19000001 13672614
0.014190618 -0.0042635561 0.19000001 12160145
0.015084086 -0.0042635561 0.19000001 9790313
0.015977552 -0.0042635561 0.19000001 9855593
0.016871022 -0.0042635561 0.19000001 10183788
0.01776449 -0.0042635561 0.19000001 10645107
0.018657958 -0.0042635561 0.19000001 9659239
0.019551424 -0.0042635561 0.19000001 6831164
0.020444892 -0.0042635561 0.19000001 5317675
0.02133836 -0.0042635561 0.19000001 4200736
0.022231828 -0.0042635561 0.19000001 7425107
0.023125295 -0.0042635561 0.19000001 6898763
0.024145178 -0.0042859963 0.19100001 8082523
0.02504335 -0.0042859963 0.19100001 7095115
0.025941519 -0.0042859963 0.19100001 6569538
0.02683969 -0.0042859963 0.19100001 7030603
0.027737861 -0.0042859963 0.19100001 6635843
0.028636029 -0.0042859963 0.19100001 7031371
0.0295342 -0.0042859963 0.19100001 7755609
0.03043237 -0.0042859963 0.19100001 7689562
0.031330541 -0.0042859963 0.19100001 6965580
0.032228712 -0.0042859963 0.19100001 8477533
0.033126883 -0.0042859963 0.19100001 7819090
0.03420319 -0.0043084356 0.192 7883598
0.035106063 -0.0043084356 0.192 8146000
0.036008935 -0.0043084356 0.192 8080461
0.036911808 -0.0043084356 0.192 8408912
0.03781468 -0.0043084356 0.192 8013639
0.03891921 -0.0043308754 0.193 8407627
0.039826784 -0.0043308754 0.193 10116702
0.040734358 -0.0043308754 0.193 11497842
0.041641936 -0.0043308754 0.193 11694449
0.042769972 -0.0043533151 0.19400001 11957621
0.043682251 -0.0043533151 0.19400001 11760242
0.04459453 -0.0043533151 0.19400001 10840425
0.045741379 -0.0043757549 0.19500001 11961221
0.046658359 -0.0043757549 0.19500001 15251130
0.04830727 -0.0044430746 0.19800001 15381174
0.049487036 -0.0044655143 0.19900002 9982546
0.050422825 -0.0044655143 0.19900002 11166047
0.05110053 -0.0044430746 0.19800001 11231068
0.052031621 -0.0044430746 0.19800001 11296350
0.052962705 -0.0044430746 0.19800001 12021104
0.053621598 -0.0044206348 0.19700001 14786468
0.054547988 -0.0044206348 0.19700001 16768737
0.055474371 -0.0044206348 0.19700001 16769758
0.056114458 -0.0043981951 0.19600001 16767714
0.057036139 -0.0043981951 0.19600001 16765408
0.057957824 -0.0043981951 0.19600001 16770807
0.058879506 -0.0043981951 0.19600001 16763607
0.059801191 -0.0043981951 0.19600001 16297656
0.061032683 -0.0044206348 0.19700001 16366785
0.0018060107 -0.0036184108 0.20400001 4077628
0.0034872622 -0.0033878258 0.19100001 15255759
0.0044083926 -0.0034055628 0.192 10778494
0.0053112651 -0.0034055628 0.192 11237757
0.0062141381 -0.0034055628 0.192 12091522
0.0070799435 -0.0033878258 0.19100001 12880268
0.0079781143 -0.0033878258 0.19100001 13143180
0.0088762837 -0.0033878258 0.19100001 12616836
0.0097744539 -0.0033878258 0.19100001 12550530
0.010672624 -0.0033878258 0.19100001 12549506
0.011570795 -0.0033878258 0.19100001 11103345
0.012468965 -0.0033878258 0.19100001 14198442
0.013367135 -0.0033878258 0.19100001 14331314
0.014265305 -0.0033878258 0.19100001 13936556
0.015163477 -0.0033878258 0.19100001 14527925
0.016061645 -0.0033878258 0.19100001 12224143
0.016959816 -0.0033878258 0.19100001 12287367
0.017857987 -0.0033878258 0.19100001 11760762
0.018756157 -0.0033878258 0.19100001 10970474
0.019654326 -0.0033878258 0.19100001 11497842
0.020552497 -0.0033878258 0.19100001 9789030
0.021450669 -0.0033878258 0.19100001 9068135
0.022348838 -0.0033878258 0.19100001 15451339
0.023247007 -0.0033878258 0.19100001 15977937
0.024145178 -0.0033878258 0.19100001 15383232
0.02504335 -0.0033878258 0.19100001 10183273
0.025941519 -0.0033878258 0.19100001 11300724
0.02698021 -0.0034055628 0.192 11498101
0.027883084 -0.0034055628 0.192 11366515
0.028785953 -0.0034055628 0.192 10709099
0.029688828 -0.0034055628 0.192 9921384
0.0305917 -0.0034055628 0.192 14201013
0.031494573 -0.0034055628 0.192 14661564
0.032397445 -0.0034055628 0.192 11238273
0.033300318 -0.0034055628 0.192 10118763
0.03420319 -0.0034055628 0.192 10315372
0.035106063 -0.0034055628 0.192 10052970
0.036008935 -0.0034055628 0.192 10382189
0.036911808 -0.0034055628 0.192 10776947
0.03781468 -0.0034055628 0.192 9921384
0.03891921 -0.0034233003 0.193 16500686
0.039826784 -0.0034233003 0.193 16763604
0.040734358 -0.0034233003 0.193 11760508
0.041641936 -0.0034233003 0.193 12352897
0.042769972 -0.0034410376 0.19400001 12484737
0.043682251 -0.0034410376 0.19400001 12089979
0.04459453 -0.0034410376 0.19400001 11563381
0.045506805 -0.0034410376 0.19400001 16170436
0.046658359 -0.0034587749 0.19500001 16764885
0.047819316 -0.0034765124 0.19600001 16765659
0.048989676 -0.0034942497 0.19700001 11562098
0.049916063 -0.0034942497 0.19700001 12613239
0.050842445 -0.0034942497 0.19700001 13270140
0.051506046 -0.0034765124 0.19600001 13663358
0.052695215 -0.0034942497 0.19700001 12282223
0.053349406 -0.0034765124 0.19600001 13668759
0.054271095 -0.0034765124 0.19600001 16771308
0.055192772 -0.0034765124 0.19600001 16774645
0.055828162 -0.0034587749 0.19500001 16772596
0.056745138 -0.0034587749 0.19500001 15114672
0.057957824 -0.0034765124 0.19600001 16297152
0.058879506 -0.0034765124 0.19600001 15969209
0.059801191 -0.0034765124 0.19600001 15511224
0.0017971577 -0.0026460737 0.20300001 4999245
0.002711091 -0.0026069691 0.2 5194574
0.0035785518 -0.0025548297 0.19600001 15783135
0.004431353 -0.0025157251 0.193 12755364
0.0053389282 -0.0025157251 0.193 10779775
0.0062141381 -0.0025026903 0.192 11172732
0.0071170107 -0.0025026903 0.192 11500922
0.0080198841 -0.0025026903 0.192 12618120
0.0088762837 -0.0024896555 0.19100001 12222592
0.0097744539 -0.0024896555 0.19100001 12616836
0.010672624 -0.0024896555 0.19100001 13208973
0.011570795 -0.0024896555 0.19100001 11762559
0.012468965 -0.0024896555 0.19100001 14922933
0.013367135 -0.0024896555 0.19100001 14594997
0.014265305 -0.0024896555 0.19100001 15187134
0.015163477 -0.0024896555 0.19100001 15843269
0.016061645 -0.0024896555 0.19100001 11564156
0.016959816 -0.0024896555 0.19100001 11366515
0.017857987 -0.0024896555 0.19100001 11366515
0.018756157 -0.0024896555 0.19100001 10708072
0.019654326 -0.0024896555 0.19100001 11103343
0.020552497 -0.0024896555 0.19100001 10118767
0.021450669 -0.0024896555 0.19100001 15843785
0.022348838 -0.0024896555 0.19100001 15581642
0.023247007 -0.0024896555 0.19100001 16107988
0.024145178 -0.0024896555 0.19100001 16566742
0.02504335 -0.0024896555 0.19100001 11104377
0.025941519 -0.0024896555 0.19100001 11892859
0.02698021 -0.0025026903 0.192 12024186
0.027883084 -0.0025026903 0.192 12484737
0.028785953 -0.0025026903 0.192 12287358
0.029688828 -0.0025026903 0.192 11301238
0.0305917 -0.0025026903 0.192 14658995
0.031494573 -0.0025026903 0.192 15844555
0.032397445 -0.0025026903 0.192 15382720
0.033300318 -0.0025026903 0.192 11893891
0.03420319 -0.0025026903 0.192 12353412
0.035106063 -0.0025026903 0.192 13142928
0.036008935 -0.0025026903 0.192 14064542
0.036911808 -0.0025026903 0.192 13998749
0.03781468 -0.0025026903 0.192 11630973
0.03891921 -0.0025157251 0.193 16763087
0.039826784 -0.0025157251 0.193 16764633
0.040734358 -0.0025157251 0.193 13208469
0.041641936 -0.0025157251 0.193 13800345
0.042769972 -0.0025287599 0.19400001 13799573
0.043682251 -0.0025287599 0.19400001 13339022
0.04459453 -0.0025287599 0.19400001 13075337
0.045506805 -0.0025287599 0.19400001 12484485
0.046658359 -0.0025417949 0.19500001 16766428
0.04757534 -0.0025417949 0.19500001 16764374
0.048740998 -0.0025548297 0.19600001 16233403
0.049662679 -0.0025548297 0.19600001 14124427
0.050584361 -0.0025548297 0.19600001 13399932
0.051506046 -0.0025548297 0.19600001 12610670
0.052427728 -0.0025548297 0.19600001 13268600
0.053349406 -0.0025548297 0.19600001 11627891
0.053994197 -0.0025417949 0.19500001 16771308
0.054911178 -0.0025417949 0.19500001 16774647
0.055828162 -0.0025417949 0.19500001 16769775
0.056745138 -0.0025417949 0.19500001 14194849
0.057662122 -0.0025417949 0.19500001 14589861
0.058579098 -0.0025417949 0.19500001 15710400
0.0017883047 -0.0016831415 0.20200001 5982278
0.0026975358 -0.0016581443 0.19900002 6509392
0.0035968097 -0.0016414796 0.19700001 7824747
0.0044543133 -0.0016164823 0.19400001 14271942
0.0053389282 -0.00160815 0.193 10584708
0.0062141381 -0.0015998175 0.192 9990772
0.0071170107 -0.0015998175 0.192 10252913
0.0080198841 -0.0015998175 0.192 10580593
0.0088762837 -0.0015914852 0.19100001 11368312
0.0097744539 -0.0015914852 0.19100001 11432822
0.010672624 -0.0015914852 0.19100001 11366515
0.011570795 -0.0015914852 0.19100001 11761787
0.012468965 -0.0015914852 0.19100001 15579836
0.013367135 -0.0015914852 0.19100001 15383230
0.014265305 -0.0015914852 0.19100001 15384000
0.015163477 -0.0015914852 0.19100001 13276057
0.016061645 -0.0015914852 0.19100001 12813961
0.016959816 -0.0015914852 0.19100001 13143180
0.017857987 -0.0015914852 0.19100001 12814215
0.018756157 -0.0015914852 0.19100001 12682375
0.019654326 -0.0015914852 0.19100001 12813709
0.020552497 -0.0015914852 0.19100001 10708847
0.021450669 -0.0015914852 0.19100001 15909064
0.022348838 -0.0015914852 0.19100001 15581642
0.023247007 -0.0015914852 0.19100001 16239574
0.024145178 -0.0015914852 0.19100001 16764635
0.02504335 -0.0015914852 0.19100001 12156297
0.025941519 -0.0015914852 0.19100001 13799573
0.02698021 -0.0015998175 0.192 13931413
0.027883084 -0.0015998175 0.192 13734804
0.028785953 -0.0015998175 0.192 13208460
0.029688828 -0.0015998175 0.192 13010827
0.0305917 -0.0015998175 0.192 14459302
0.031494573 -0.0015998175 0.192 16106439
0.032397445 -0.0015998175 0.192 16763859
0.033300318 -0.0015998175 0.192 13668505
0.03420319 -0.0015998175 0.192 14260126
0.035106063 -0.0015998175 0.192 14128025
0.036008935 -0.0015998175 0.192 13733521
0.036911808 -0.0015998175 0.192 13996693
0.03781468 -0.0015998175 0.192 13141897
0.03891921 -0.00160815 0.193 15512506
0.039826784 -0.00160815 0.193 16764374
0.040734358 -0.00160815 0.193 12550026
0.041641936 -0.00160815 0.193 13207438
0.042769972 -0.0016164823 0.19400001 12944005
0.043682251 -0.0016164823 0.19400001 13009028
0.04459453 -0.0016164823 0.19400001 13139844
0.045506805 -0.0016164823 0.19400001 12548223
0.046419084 -0.0016164823 0.19400001 16764374
0.04757534 -0.0016248147 0.19500001 16764377
0.04849232 -0.0016248147 0.19500001 16762836
0.0494093 -0.0016248147 0.19500001 13203327
0.050326277 -0.0016248147 0.19500001 13269120
0.051243261 -0.0016248147 0.19500001 13796234
0.052160237 -0.0016248147 0.19500001 12941184
0.053077217 -0.0016248147 0.19500001 11496307
0.053717304 -0.0016164823 0.19400001 13601942
0.054629579 -0.0016164823 0.19400001 12091270
0.055541862 -0.0016164823 0.19400001 14395308
0.056454137 -0.0016164823 0.19400001 13738145
0.057366416 -0.0016164823 0.19400001 10189687
0.0053389282 -0.00070057472 0.193 15656164
0.0062141381 -0.00069694477 0.192 10454923
0.0071170107 -0.00069694477 0.192 10059134
0.0080198841 -0.00069694477 0.192 9925493
0.0088762837 -0.00069331494 0.19100001 10252400
0.0097744539 -0.00069331494 0.19100001 10251116
0.010672624 -0.00069331494 0.19100001 10382187
0.011570795 -0.00069331494 0.19100001 11433594
0.012468965 -0.00069331494 0.19100001 11565180
0.013367135 -0.00069331494 0.19100001 10840687
0.014265305 -0.00069331494 0.19100001 13143442
0.015163477 -0.00069331494 0.19100001 11827066
0.016061645 -0.00069331494 0.19100001 11761014
0.016959816 -0.00069331494 0.19100001 11694451
0.017857987 -0.00069331494 0.19100001 11299693
0.018756157 -0.00069331494 0.19100001 11892346
0.019654326 -0.00069331494 0.19100001 11958654
0.020552497 -0.00069331494 0.19100001 10511722
0.021562973 -0.00069694477 0.192 16106439
0.022465847 -0.00069694477 0.192 15714250
0.023368718 -0.00069694477 0.192 14595517
0.024271591 -0.00069694477 0.192 16040396
0.025174465 -0.00069694477 0.192 10774642
0.026077338 -0.00069694477 0.192 11694197
0.02698021 -0.00069694477 0.192 12286075
0.027883084 -0.00069694477 0.192 12351098
0.028785953 -0.00069694477 0.192 12614270
0.029688828 -0.00069694477 0.192 13009026
0.0305917 -0.00069694477 0.192 13799573
0.031494573 -0.00069694477 0.192 16037820
0.032397445 -0.00069694477 0.192 16761291
0.033300318 -0.00069694477 0.192 14062234
0.03420319 -0.00069694477 0.192 13864085
0.035106063 -0.00069694477 0.192 13468555
0.036008935 -0.00069694477 0.192 13139844
0.036911808 -0.00069694477 0.192 12416121
0.038011633 -0.00070057472 0.193 13534602
0.03891921 -0.00070057472 0.193 14982566
0.039826784 -0.00070057472 0.193 16167869
0.040734358 -0.00070057472 0.193 13009544
0.041857697 -0.00070420466 0.19400001 13207177
0.042769972 -0.00070420466 0.19400001 12417661
0.043682251 -0.00070420466 0.19400001 12087926
0.04459453 -0.00070420466 0.19400001 12416119
0.045506805 -0.00070420466 0.19400001 13402757
0.046419084 -0.00070420466 0.19400001 13534602
0.04757534 -0.00070783455 0.19500001 12284281
0.04849232 -0.00070783455 0.19500001 12612989
0.0494093 -0.00070783455 0.19500001 13533575
0.050326277 -0.00070783455 0.19500001 13073024
0.051243261 -0.00070783455 0.19500001 12481914
0.05189275 -0.00070420466 0.19400001 12286075
0.052805025 -0.00070420466 0.19400001 12683659
0.053717304 -0.00070420466 0.19400001 12949143
0.054347984 -0.00070057472 0.193 9859188
0.055255562 -0.00070057472 0.193 4399912
0.056163136 -0.00070057472 0.193 2429972
0.057070713 -0.00070057472 0.193 3551017
0.0071170107 0.00020592788 0.192 16508904
0.0080198841 0.00020592788 0.192 10847113
0.0088762837 0.00020485534 0.19100001 10188153
0.0097744539 0.00020485534 0.19100001 10385015
0.010672624 0.00020485534 0.19100001 10647158
0.011570795 0.00020485534 0.19100001 10581363
0.012468965 0.00020485534 0.19100001 10843251
0.013367135 0.00020485534 0.19100001 10908531
0.014265305 0.00020485534 0.19100001 11104627
0.015163477 0.00020485534 0.19100001 11301236
0.016061645 0.00020485534 0.19100001 11103857
0.016959816 0.00020485534 0.19100001 11103597
0.017857987 0.00020485534 0.19100001 10708326
0.018756157 0.00020485534 0.19100001 11037291
0.019654326 0.00020485534 0.19100001 10971498
0.020552497 0.00020485534 0.19100001 11761273
0.021562973 0.00020592788 0.192 10445927
0.022465847 0.00020592788 0.192 12224393
0.023368718 0.00020592788 0.192 13211036
0.024271591 0.00020592788 0.192 10379370
0.025174465 0.00020592788 0.192 11233648
0.026077338 0.00020592788 0.192 11167853
0.02698021 0.00020592788 0.192 11496559
0.027883084 0.00020592788 0.192 11496559
0.028785953 0.00020592788 0.192 11823982
0.029688828 0.00020592788 0.192 11823982
0.0305917 0.00020592788 0.192 11823984
0.031494573 0.00020592788 0.192 12285051
0.032397445 0.00020592788 0.192 12877188
0.033300318 0.00020592788 0.192 12811397
0.034381334 0.00020700041 0.193 12877190
0.035288908 0.00020700041 0.193 12548225
0.036196481 0.00020700041 0.193 11758709
0.037104059 0.00020700041 0.193 11758709
0.038011633 0.00020700041 0.193 13008774
0.03891921 0.00020700041 0.193 13141130
0.039826784 0.00020700041 0.193 12812678
0.040734358 0.00020700041 0.193 11956858
0.041857697 0.00020807296 0.19400001 11956856
0.042769972 0.00020807296 0.19400001 11956856
0.043682251 0.00020807296 0.19400001 12220282
0.04459453 0.00020807296 0.19400001 13009796
0.045506805 0.00020807296 0.19400001 13009796
0.046419084 0.00020807296 0.19400001 12549245
0.04757534 0.0002091455 0.19500001 12682629
0.04849232 0.0002091455 0.19500001 13866649
0.0494093 0.0002091455 0.19500001 13603991
0.050326277 0.0002091455 0.19500001 13867933
0.051243261 0.0002091455 0.19500001 14328999
0.05189275 0.00020807296 0.19400001 13408667
0.052532833 0.00020700041 0.193 7819865
0.053440411 0.00020700041 0.193 2889502
0.054347984 0.00020700041 0.193 3220771
0.055255562 0.00020700041 0.193 2300698
0.056163136 0.00020700041 0.193 1907223
0.057070713 0.00020700041 0.193 1776411
0.0088762837 0.0011030256 0.19100001 16774902
0.0097744539 0.0011030256 0.19100001 12364715
0.010672624 0.0011030256 0.19100001 10256259
0.011570795 0.0011030256 0.19100001 10319739
0.012468965 0.0011030256 0.19100001 10186868
0.013367135 0.0011030256 0.19100001 10317939
0.014265305 0.0011030256 0.19100001 10646134
0.015163477 0.0011030256 0.19100001 10908279
0.016061645 0.0011030256 0.19100001 11237496
0.016959816 0.0011030256 0.19100001 11105394
0.017857987 0.0011030256 0.19100001 11631738
0.018756157 0.0011030256 0.19100001 11302260
0.019654326 0.0011030256 0.19100001 11169904
0.020552497 0.0011030256 0.19100001 10709353
0.021562973 0.0011088005 0.192 11959936
0.022465847 0.0011088005 0.192 11696764
0.023368718 0.0011088005 0.192 11762559
0.024271591 0.0011088005 0.192 11103605
0.025174465 0.0011088005 0.192 11037552
0.026077338 0.0011088005 0.192 11760762
0.02698021 0.0011088005 0.192 12023934
0.027883084 0.0011088005 0.192 11826553
0.028785953 0.0011088005 0.192 11300209
0.029688828 0.0011088005 0.192 11628404
0.0305917 0.0011088005 0.192 12023162
0.031494573 0.0011088005 0.192 12287104
0.032397445 0.0011088005 0.192 12681862
0.033300318 0.0011088005 0.192 12616584
0.034381334 0.0011145755 0.193 12813963
0.035288908 0.0011145755 0.193 13340307
0.036196481 0.0011145755 0.193 13209235
0.037104059 0.0011145755 0.193 12617614
0.038011633 0.0011145755 0.193 11762305
0.03891921 0.0011145755 0.193 11564926
0.039826784 0.0011145755 0.193 11696512
0.040734358 0.0011145755 0.193 12157576
0.041857697 0.0011203506 0.19400001 12881040
0.042769972 0.0011203506 0.19400001 12749454
0.043682251 0.0011203506 0.19400001 12683659
0.04459453 0.0011203506 0.19400001 12881292
0.045506805 0.0011203506 0.19400001 13277331
0.046419084 0.0011203506 0.19400001 12753297
0.04757534 0.0011261256 0.19500001 12951448
0.04849232 0.0011261256 0.19500001 12623258
0.0494093 0.0011261256 0.19500001 12887459
0.050326277 0.0011261256 0.19500001 10323587
0.050980475 0.0011203506 0.19400001 5586239
0.05189275 0.0011203506 0.19400001 3152163
0.052532833 0.0011145755 0.193 2890787
0.053440411 0.0011145755 0.193 2958375
0.054066386 0.0011088005 0.192 2761247
0.054969262 0.0011088005 0.192 2038296
0.055872135 0.0011088005 0.192 1973533
0.013367135 0.0020011959 0.19100001 10848650
0.014265305 0.0020011959 0.19100001 10056565
0.015163477 0.0020011959 0.19100001 10384247
0.016145736 0.0020116733 0.192 10515322
0.01704861 0.0020116733 0.192 11172478
0.017951483 0.0020116733 0.192 11106937
0.018854355 0.0020116733 0.192 10777458
0.019757228 0.0020116733 0.192 11040630
0.020660101 0.0020116733 0.192 11501181
0.021562973 0.0020116733 0.192 11501443
0.022465847 0.0020116733 0.192 11501443
0.023368718 0.0020116733 0.192 11764615
0.024271591 0.0020116733 0.192 11567236
0.025174465 0.0020116733 0.192 11961994
0.026077338 0.0020116733 0.192 11961994
0.02698021 0.0020116733 0.192 11829894
0.027883084 0.0020116733 0.192 11763588
0.028785953 0.0020116733 0.192 11829381
0.029688828 0.0020116733 0.192 12158346
0.0305917 0.0020116733 0.192 12290445
0.031494573 0.0020116733 0.192 12422031
0.032397445 0.0020116733 0.192 12422285
0.033300318 0.0020116733 0.192 11961734
0.034381334 0.0020221507 0.193 12027787
0.035288908 0.0020221507 0.193 11633031
0.036196481 0.0020221507 0.193 11568008
0.037104059 0.0020221507 0.193 11634314
0.038011633 0.0020221507 0.193 11635084
0.03891921 0.0020221507 0.193 10844796
0.039826784 0.0020221507 0.193 11568773
