# .PCD v0.7 - Point Cloud Data file format
VERSION 0.7
FIELDS x y z rgb
SIZE 4 4 4 4
TYPE F F F U
COUNT 1 1 1 1
WIDTH 1162
HEIGHT 1
VIEWPOINT 0 0 0 1 0 0 0
POINTS 1162
DATA ascii
0.013087194 -0.020904085 0.18700001 6440778
0.013891867 -0.020792298 0.186 6112837
0.014766525 -0.020792298 0.186 6376009
0.015641183 -0.020792298 0.186 6769997
0.016515842 -0.020792298 0.186 6834507
0.017390499 -0.020792298 0.186 6966093
0.018265158 -0.020792298 0.186 6702919
0.019036911 -0.020680511 0.185 7031371
0.019906867 -0.020680511 0.185 7162957
0.020776823 -0.020680511 0.185 6899785
0.021646779 -0.020680511 0.185 10649218
0.022638446 -0.020792298 0.186 10649216
0.023513105 -0.020792298 0.186 10254196
0.024387762 -0.020792298 0.186 9924716
0.025126601 -0.020680511 0.185 10055532
0.025996557 -0.020680511 0.185 9792360
0.027011737 -0.020792298 0.186 9791849
0.027736466 -0.020680511 0.185 9660263
0.028606422 -0.020680511 0.185 10120560
0.029476378 -0.020680511 0.185 10120562
0.030346334 -0.020680511 0.185 10778492
0.03121629 -0.020680511 0.185 10975871
0.032086246 -0.020680511 0.185 11040896
0.032956202 -0.020680511 0.185 12948893
0.033826154 -0.020680511 0.185 12094100
0.03469611 -0.020680511 0.185 11567756
0.035566065 -0.020680511 0.185 12028307
0.036632974 -0.020792298 0.186 11699596
0.037507631 -0.020792298 0.186 14661562
0.038382288 -0.020792298 0.186 15911890
0.039256949 -0.020792298 0.186 16175578
0.040131606 -0.020792298 0.186 11570585
0.041006263 -0.020792298 0.186 14397622
0.041880921 -0.020792298 0.186 14660279
0.042755578 -0.020792298 0.186 14856886
0.043630235 -0.020792298 0.186 15976650
0.044504896 -0.020792298 0.186 14988222
0.045379553 -0.020792298 0.186 12817574
0.04625421 -0.020792298 0.186 16769782
0.047128871 -0.020792298 0.186 16769782
0.048003525 -0.020792298 0.186 15712464
0.048878185 -0.020792298 0.186 14394542
0.05002033 -0.020904085 0.18700001 14328236
0.050899688 -0.020904085 0.18700001 13867944
0.05177905 -0.020904085 0.18700001 13606055
0.052658409 -0.020904085 0.18700001 13213096
0.053537775 -0.020904085 0.18700001 12358819
0.054417133 -0.020904085 0.18700001 11571102
0.055296496 -0.020904085 0.18700001 10650520
0.056175854 -0.020904085 0.18700001 8678788
0.057360325 -0.021015871 0.18800001 4275291
0.010560869 -0.020238893 0.18900001 5256756
0.011389053 -0.020131808 0.18800001 5585206
0.012207834 -0.020024724 0.18700001 5913403
0.013087194 -0.020024724 0.18700001 6307650
0.013966555 -0.020024724 0.18700001 7426131
0.014845916 -0.020024724 0.18700001 7623510
0.015641183 -0.019917639 0.186 7360338
0.016515842 -0.019917639 0.186 7490640
0.017390499 -0.019917639 0.186 9727602
0.018265158 -0.019917639 0.186 11042947
0.019139815 -0.019917639 0.186 10516601
0.020014472 -0.019917639 0.186 10713210
0.020889131 -0.019917639 0.186 10582394
0.021763789 -0.019917639 0.186 11635597
0.022638446 -0.019917639 0.186 11701390
0.023513105 -0.019917639 0.186 10450808
0.024256645 -0.019810556 0.185 10777974
0.025126601 -0.019810556 0.185 10909044
0.025996557 -0.019810556 0.185 10842738
0.026866512 -0.019810556 0.185 10842738
0.027886393 -0.019917639 0.186 10316142
0.028761052 -0.019917639 0.186 9593966
0.029635709 -0.019917639 0.186 13345450
0.030510368 -0.019917639 0.186 13082791
0.031385027 -0.019917639 0.186 13214377
0.032259684 -0.019917639 0.186 14002610
0.033134341 -0.019917639 0.186 12883616
0.034008998 -0.019917639 0.186 12621739
0.034883656 -0.019917639 0.186 10189449
0.035758317 -0.019917639 0.186 12291994
0.036632974 -0.019917639 0.186 12225686
0.037507631 -0.019917639 0.186 13674417
0.038382288 -0.019917639 0.186 15648981
0.039256949 -0.019917639 0.186 16372704
0.040131606 -0.019917639 0.186 11634581
0.041006263 -0.019917639 0.186 14922429
0.041880921 -0.019917639 0.186 14001065
0.042755578 -0.019917639 0.186 16765655
0.043630235 -0.019917639 0.186 15843781
0.044504896 -0.019917639 0.186 13803173
0.045379553 -0.019917639 0.186 12290195
0.04625421 -0.019917639 0.186 16172247
0.047128871 -0.019917639 0.186 16765156
0.048003525 -0.019917639 0.186 13606318
0.049140971 -0.020024724 0.18700001 14262956
0.05002033 -0.020024724 0.18700001 12616846
0.050899688 -0.020024724 0.18700001 13933476
0.05177905 -0.020024724 0.18700001 13013657
0.052658409 -0.020024724 0.18700001 13146272
0.053537775 -0.020024724 0.18700001 12358557
0.054417133 -0.020024724 0.18700001 16504029
0.055296496 -0.020024724 0.18700001 16700895
0.056175854 -0.020024724 0.18700001 15119808
0.057055216 -0.020024724 0.18700001 13409190
0.057934575 -0.020024724 0.18700001 11043475
0.058813933 -0.020024724 0.18700001 7296622
0.0017086277 -0.019759653 0.193 1448469
0.0026162029 -0.019759653 0.193 1448469
0.0035237779 -0.019759653 0.193 1514009
0.004431353 -0.019759653 0.193 1646365
0.0053389282 -0.019759653 0.193 1712160
0.0062465039 -0.019759653 0.193 1646367
0.0071170107 -0.019657271 0.192 2105121
0.0079781143 -0.019554891 0.19100001 3286566
0.0088298116 -0.019452509 0.19000001 4271660
0.0096721034 -0.019350126 0.18900001 5651003
0.010449113 -0.019145362 0.18700001 6570048
0.011328474 -0.019145362 0.18700001 6700607
0.012207834 -0.019145362 0.18700001 7488842
0.013087194 -0.019145362 0.18700001 9265251
0.013966555 -0.019145362 0.18700001 11238271
0.014766525 -0.019042982 0.186 12159373
0.015641183 -0.019042982 0.186 12225936
0.016515842 -0.019042982 0.186 11633799
0.017390499 -0.019042982 0.186 11371140
0.018265158 -0.019042982 0.186 11633801
0.019139815 -0.019042982 0.186 10382450
0.020014472 -0.019042982 0.186 10581111
0.020889131 -0.019042982 0.186 13214627
0.021763789 -0.019042982 0.186 12623006
0.022516733 -0.0189406 0.185 12425627
0.023386689 -0.0189406 0.185 12358805
0.024256645 -0.0189406 0.185 11172730
0.025126601 -0.0189406 0.185 11369595
0.025996557 -0.0189406 0.185 11434875
0.026866512 -0.0189406 0.185 11828865
0.027886393 -0.019042982 0.186 11105658
0.028761052 -0.019042982 0.186 9660274
0.029635709 -0.019042982 0.186 14596032
0.030346334 -0.0189406 0.185 14464960
0.031385027 -0.019042982 0.186 14859718
0.032259684 -0.019042982 0.186 14397368
0.033134341 -0.019042982 0.186 11699596
0.034008998 -0.019042982 0.186 12884648
0.034883656 -0.019042982 0.186 13742789
0.035758317 -0.019042982 0.186 11962516
0.036632974 -0.019042982 0.186 12224918
0.037507631 -0.019042982 0.186 11174032
0.038382288 -0.019042982 0.186 15385809
0.039256949 -0.019042982 0.186 16043225
0.040131606 -0.019042982 0.186 11041927
0.041006263 -0.019042982 0.186 12158350
0.041880921 -0.019042982 0.186 11697799
0.042755578 -0.019042982 0.186 11829385
0.043630235 -0.019042982 0.186 11434625
0.044504896 -0.019042982 0.186 11170685
0.045379553 -0.019042982 0.186 11105662
0.04625421 -0.019042982 0.186 16041680
0.047128871 -0.019042982 0.186 16568026
0.048261609 -0.019145362 0.18700001 11959183
0.049140971 -0.019145362 0.18700001 12813459
0.05028782 -0.019247744 0.18800001 12155781
0.05117188 -0.019247744 0.18800001 12222088
0.052055947 -0.019247744 0.18800001 11236476
0.052940007 -0.019247744 0.18800001 12816278
0.053824071 -0.019247744 0.18800001 11172998
0.054708134 -0.019247744 0.18800001 16766173
0.055296496 -0.019145362 0.18700001 16502746
0.056175854 -0.019145362 0.18700001 13607341
0.057055216 -0.019145362 0.18700001 14066347
0.057934575 -0.019145362 0.18700001 12684694
0.058813933 -0.019145362 0.18700001 13672102
0.059374079 -0.019042982 0.186 13015717
0.060248736 -0.019042982 0.186 10187652
0.061123397 -0.019042982 0.186 3416118
0.0017086277 -0.018852077 0.193 1448216
0.0026162029 -0.018852077 0.193 1514009
0.0035237779 -0.018852077 0.193 1448216
0.004431353 -0.018852077 0.193 1514009
0.0053389282 -0.018852077 0.193 1842974
0.0062465039 -0.018852077 0.193 2038296
0.0071170107 -0.018754398 0.192 4272178
0.0079363436 -0.018559042 0.19000001 4730414
0.0088298116 -0.018559042 0.19000001 6899787
0.0096209282 -0.018363683 0.18800001 6306364
0.010449113 -0.018266004 0.18700001 8016982
0.011328474 -0.018266004 0.18700001 9332329
0.012207834 -0.018266004 0.18700001 11107455
0.013017209 -0.018168325 0.186 12356238
0.013891867 -0.018168325 0.186 12025990
0.014766525 -0.018168325 0.186 12420235
0.015641183 -0.018168325 0.186 13012885
0.016515842 -0.018168325 0.186 11697795
0.017390499 -0.018168325 0.186 11435136
0.018265158 -0.018168325 0.186 12158859
0.019139815 -0.018168325 0.186 11895687
0.020014472 -0.018168325 0.186 10777720
0.020776823 -0.018070646 0.185 13083041
0.021646779 -0.018070646 0.185 12228248
0.022516733 -0.018070646 0.185 12228248
0.023386689 -0.018070646 0.185 13015965
0.024256645 -0.018070646 0.185 10843767
0.025126601 -0.018070646 0.185 11303804
0.025996557 -0.018070646 0.185 10907763
0.026866512 -0.018070646 0.185 9919585
0.027886393 -0.018168325 0.186 9262171
0.028761052 -0.018168325 0.186 9988726
0.029635709 -0.018168325 0.186 14136765
0.030346334 -0.018070646 0.185 13808060
0.031385027 -0.018168325 0.186 14334657
0.032259684 -0.018168325 0.186 10383995
0.033134341 -0.018168325 0.186 10908796
0.034008998 -0.018168325 0.186 11039867
0.034883656 -0.018168325 0.186 11434623
0.035758317 -0.018168325 0.186 11237244
0.036632974 -0.018168325 0.186 11368062
0.037507631 -0.018168325 0.186 9987703
0.038382288 -0.018168325 0.186 15582163
0.039256949 -0.018168325 0.186 14265269
0.040131606 -0.018168325 0.186 12948375
0.041006263 -0.018168325 0.186 12355979
0.041880921 -0.018168325 0.186 11894404
0.042755578 -0.018168325 0.186 11893891
0.043630235 -0.018168325 0.186 12091270
0.044504896 -0.018168325 0.186 11499135
0.045379553 -0.018168325 0.186 10973302
0.04625421 -0.018168325 0.186 10448495
0.047128871 -0.018168325 0.186 11959938
0.048261609 -0.018266004 0.18700001 15708605
0.049403761 -0.018363683 0.18800001 12156815
0.050555307 -0.018461362 0.18900001 11365762
0.051716264 -0.018559042 0.19000001 11497851
0.052332841 -0.018461362 0.18900001 11563642
0.053221602 -0.018461362 0.18900001 11433340
0.054110371 -0.018461362 0.18900001 10974589
0.054999135 -0.018461362 0.18900001 16173266
0.055296496 -0.018266004 0.18700001 16766690
0.056175854 -0.018266004 0.18700001 12093079
0.057055216 -0.018266004 0.18700001 12948125
0.057934575 -0.018266004 0.18700001 13342624
0.058499418 -0.018168325 0.186 13803175
0.059374079 -0.018168325 0.186 13869481
0.060248736 -0.018168325 0.186 12948639
0.061123397 -0.018168325 0.186 12883618
0.061998051 -0.018168325 0.186 10845842
0.0016997746 -0.017851526 0.192 1448986
0.0026026473 -0.017851526 0.192 1317400
0.0035055198 -0.017851526 0.192 1448986
0.0044083926 -0.017851526 0.192 1644825
0.0053112651 -0.017851526 0.192 1774871
0.0061817733 -0.01775855 0.19100001 4731446
0.0070428755 -0.017665574 0.19000001 5715513
0.0078945737 -0.017572597 0.18900001 6174267
0.0087833386 -0.017572597 0.18900001 9133667
0.0096209282 -0.017479619 0.18800001 11305351
0.010449113 -0.017386643 0.18700001 11897486
0.011267894 -0.017293666 0.186 13543081
0.012142551 -0.017293666 0.186 13543083
0.013017209 -0.017293666 0.186 14726587
0.013891867 -0.017293666 0.186 14658997
0.014766525 -0.017293666 0.186 12486543
0.015641183 -0.017293666 0.186 13012887
0.016515842 -0.017293666 0.186 12749200
0.017390499 -0.017293666 0.186 11696512
0.018265158 -0.017293666 0.186 11499646
0.019036911 -0.01720069 0.185 11301754
0.019906867 -0.01720069 0.185 10382450
0.020776823 -0.01720069 0.185 12293527
0.021646779 -0.01720069 0.185 12031639
0.022516733 -0.01720069 0.185 12819356
0.023386689 -0.01720069 0.185 12356492
0.024256645 -0.01720069 0.185 10579568
0.025126601 -0.01720069 0.185 10315626
0.025996557 -0.01720069 0.185 10644076
0.026866512 -0.01720069 0.185 10380134
0.027886393 -0.017293666 0.186 9131352
0.028761052 -0.017293666 0.186 8081240
0.029635709 -0.017293666 0.186 10977931
0.030346334 -0.01720069 0.185 11306634
0.031385027 -0.017293666 0.186 11765898
0.032259684 -0.017293666 0.186 10382448
0.033134341 -0.017293666 0.186 9921384
0.034008998 -0.017293666 0.186 10052970
0.034883656 -0.017293666 0.186 9987431
0.035758317 -0.017293666 0.186 9921638
0.036632974 -0.017293666 0.186 10053222
0.037507631 -0.017293666 0.186 10514540
0.038382288 -0.017293666 0.186 7948613
0.039256949 -0.017293666 0.186 8277576
0.040131606 -0.017293666 0.186 9001299
0.041006263 -0.017293666 0.186 8145479
0.041880921 -0.017293666 0.186 8473674
0.042755578 -0.017293666 0.186 9131091
0.043630235 -0.017293666 0.186 8933712
0.044504896 -0.017293666 0.186 9722204
0.045379553 -0.017293666 0.186 9591390
0.04625421 -0.017293666 0.186 10117993
0.047128871 -0.017293666 0.186 11039349
0.048261609 -0.017386643 0.18700001 15906234
0.049666546 -0.017572597 0.18900001 13801890
0.051357772 -0.017851526 0.192 10971771
0.052260641 -0.017851526 0.192 10774640
0.052886628 -0.01775855 0.19100001 10970992
0.053784795 -0.01775855 0.19100001 10905712
0.05439667 -0.017665574 0.19000001 10380656
0.055290136 -0.017665574 0.19000001 14394540
0.055592198 -0.017479619 0.18800001 15314359
0.056175854 -0.017386643 0.18700001 12024711
0.057055216 -0.017386643 0.18700001 12749202
0.057934575 -0.017386643 0.18700001 13012887
0.058499418 -0.017293666 0.186 12947094
0.059374079 -0.017293666 0.186 14065575
0.060248736 -0.017293666 0.186 12289166
0.061123397 -0.017293666 0.186 12619162
0.061998051 -0.017293666 0.186 13804984
0.063210741 -0.017386643 0.18700001 11372706
0.0016909218 -0.016860379 0.19100001 1645595
0.0025890921 -0.016860379 0.19100001 1579802
0.0034872622 -0.016860379 0.19100001 1579804
0.0043624719 -0.016772106 0.19000001 1841179
0.0052559399 -0.016772106 0.19000001 3810091
0.0061170426 -0.016683832 0.18900001 6043454
0.0070058075 -0.016683832 0.18900001 10976384
0.007852803 -0.016595557 0.18800001 12751512
0.0087368656 -0.016595557 0.18800001 12158859
0.009569753 -0.016507283 0.18700001 12092818
0.010393236 -0.016419008 0.186 13606057
0.011267894 -0.016419008 0.186 13344421
0.012142551 -0.016419008 0.186 13411495
0.013017209 -0.016419008 0.186 14991042
0.013891867 -0.016419008 0.186 14660281
0.014766525 -0.016419008 0.186 12289936
0.015641183 -0.016419008 0.186 12222856
0.016427046 -0.016330734 0.185 11038582
0.017297002 -0.016330734 0.185 11892607
0.018166957 -0.016330734 0.185 10708074
0.019036911 -0.016330734 0.185 10707304
0.019906867 -0.016330734 0.185 9853792
0.020776823 -0.016330734 0.185 12357004
0.021646779 -0.016330734 0.185 13213598
0.022516733 -0.016330734 0.185 7752266
0.023386689 -0.016330734 0.185 9331296
0.024256645 -0.016330734 0.185 9791847
0.025126601 -0.016330734 0.185 9594216
0.025996557 -0.016330734 0.185 9463147
0.026866512 -0.016330734 0.185 8413026
0.027886393 -0.016419008 0.186 8152168
0.028761052 -0.016419008 0.186 7823203
0.029635709 -0.016419008 0.186 8216678
0.030346334 -0.016330734 0.185 8741989
0.031385027 -0.016419008 0.186 8805467
0.032259684 -0.016419008 0.186 8148053
0.033134341 -0.016419008 0.186 9003877
0.034008998 -0.016419008 0.186 9398633
0.034883656 -0.016419008 0.186 6174263
0.035758317 -0.016419008 0.186 6304820
0.036632974 -0.016419008 0.186 6107439
0.037507631 -0.016419008 0.186 5778726
0.038382288 -0.016419008 0.186 5253663
0.039256949 -0.016419008 0.186 4793627
0.040347368 -0.016507283 0.18700001 3675662
0.041226726 -0.016507283 0.18700001 4202524
0.041880921 -0.016419008 0.186 9136999
0.042985447 -0.016507283 0.18700001 8675676
0.043864809 -0.016507283 0.18700001 7885646
0.044744167 -0.016507283 0.18700001 8017748
0.048519693 -0.016595557 0.18800001 7880770
0.0504549 -0.016948653 0.192 9197143
0.052160237 -0.017213477 0.19500001 9921638
0.052805025 -0.017125202 0.19400001 10776947
0.053440411 -0.017036928 0.193 9524827
0.054347984 -0.017036928 0.193 11103345
0.054969262 -0.016948653 0.192 11498103
0.055581138 -0.016860379 0.19100001 11958141
0.055887904 -0.016683832 0.18900001 11694199
0.056476258 -0.016595557 0.18800001 12944266
0.057360325 -0.016595557 0.18800001 10970476
0.057934575 -0.016507283 0.18700001 10905453
0.058499418 -0.016419008 0.186 11498103
0.059374079 -0.016419008 0.186 12222086
0.060248736 -0.016419008 0.186 11761537
0.061123397 -0.016419008 0.186 11762309
0.061998051 -0.016419008 0.186 14000813
0.062872715 -0.016419008 0.186 13278123
0.0016820688 -0.015878636 0.19000001 1710620
0.0025619811 -0.015795065 0.18900001 1971480
0.0034507464 -0.015795065 0.18900001 3086359
0.0043395115 -0.015795065 0.18900001 4531752
0.0052282768 -0.015795065 0.18900001 8344664
0.0060846773 -0.015711494 0.18800001 13079963
0.0069687399 -0.015711494 0.18800001 12816791
0.007852803 -0.015711494 0.18800001 12553106
0.0086903926 -0.015627921 0.18700001 12224141
0.0095185777 -0.015544349 0.186 12224141
0.010393236 -0.015544349 0.186 12487315
0.011267894 -0.015544349 0.186 12159123
0.012142551 -0.015544349 0.186 12950176
0.012947224 -0.015460777 0.185 13804972
0.01381718 -0.015460777 0.185 13803688
0.014687136 -0.015460777 0.185 11235961
0.01555709 -0.015460777 0.185 11367029
0.016427046 -0.015460777 0.185 12025213
0.017297002 -0.015460777 0.185 11104111
0.018166957 -0.015460777 0.185 10051421
0.019036911 -0.015460777 0.185 9131350
0.019906867 -0.015460777 0.185 8279893
0.020889131 -0.015544349 0.186 7622736
0.054971781 -0.017800787 0.21300001 3542543
0.054133907 -0.017215787 0.20600002 3542027
0.05349768 -0.016714355 0.2 3804686
0.053621598 -0.016463639 0.19700001 3738891
0.054271095 -0.016380068 0.19600001 4000779
0.054911178 -0.016296495 0.19500001 4130823
0.055255562 -0.016129352 0.193 5445399
0.055872135 -0.016045779 0.192 8668741
0.056183606 -0.015878636 0.19000001 10707554
0.056776665 -0.015795065 0.18900001 10378587
0.057360325 -0.015711494 0.18800001 10115669
0.057934575 -0.015627921 0.18700001 10838625
0.058499418 -0.015544349 0.186 11036004
0.059374079 -0.015544349 0.186 11168107
0.060248736 -0.015544349 0.186 12088955
0.061123397 -0.015544349 0.186 12221572
0.061998051 -0.015544349 0.186 13603741
0.062872715 -0.015544349 0.186 13211811
0.0016732158 -0.014906301 0.18900001 9473937
0.0025619811 -0.014906301 0.18900001 9341581
0.0034507464 -0.014906301 0.18900001 8216926
0.0043165511 -0.014827431 0.18800001 9792360
0.0052006142 -0.014827431 0.18800001 13078932
0.006052312 -0.014748562 0.18700001 12618127
0.0069316719 -0.014748562 0.18700001 12486028
0.0078110327 -0.014748562 0.18700001 11828611
0.0086439196 -0.014669692 0.186 11697025
0.0095185777 -0.014669692 0.186 11235445
0.010393236 -0.014669692 0.186 10840687
0.011267894 -0.014669692 0.186 11301238
0.012077268 -0.014590823 0.185 12025731
0.012947224 -0.014590823 0.185 10775916
0.01381718 -0.014590823 0.185 10315111
0.014687136 -0.014590823 0.185 10578283
0.01555709 -0.014590823 0.185 10973554
0.016515842 -0.014669692 0.186 8474965
0.017390499 -0.014669692 0.186 7556945
0.0547303 -0.017035771 0.21600001 5191733
0.054971781 -0.016799165 0.21300001 6373952
0.054396693 -0.016325949 0.20700002 3149836
0.054032657 -0.015931603 0.20200001 3412236
0.054165982 -0.015694994 0.19900002 3477515
0.054824881 -0.015616125 0.19800001 3805967
0.055192772 -0.015458386 0.19600001 3739658
0.055541862 -0.015300647 0.19400001 4067340
0.056163136 -0.015221777 0.193 4264203
0.056479309 -0.01506404 0.19100001 4261635
0.057077073 -0.01498517 0.19000001 5115917
0.057360325 -0.014827431 0.18800001 8404536
0.057934575 -0.014748562 0.18700001 9784649
0.058499418 -0.014669692 0.186 11231840
0.059374079 -0.014669692 0.186 10705499
0.060248736 -0.014669692 0.186 11297638
0.061123397 -0.014669692 0.186 12745602
0.061998051 -0.014669692 0.186 12352899
0.062872715 -0.014669692 0.186 11632519
0.0016643627 -0.013943369 0.18800001 2825762
0.0025484257 -0.013943369 0.18800001 2955295
0.0034324883 -0.013943369 0.18800001 8937571
0.0042935908 -0.013869201 0.18700001 12751764
0.0051729511 -0.013869201 0.18700001 12882836
0.006052312 -0.013869201 0.18700001 13342620
0.0069316719 -0.013869201 0.18700001 11893891
0.0077692624 -0.013795034 0.186 11169398
0.0086439196 -0.013795034 0.186 10445927
0.0095185777 -0.013795034 0.186 10642531
0.010393236 -0.013795034 0.186 10445150
0.011267894 -0.013795034 0.186 10576736
0.012077268 -0.013720867 0.185 10381158
0.012947224 -0.013720867 0.185 10513773
0.013891867 -0.013795034 0.186 8870747
0.054460604 -0.016242541 0.21900001 2755337
0.0547303 -0.016020039 0.21600001 4795692
0.054971781 -0.015797541 0.21300001 3216142
0.054659478 -0.015426705 0.208 4137242
0.054300144 -0.015055871 0.20300001 4202776
0.05443817 -0.01483337 0.2 4597534
0.055101775 -0.014759204 0.19900002 4596764
0.055474371 -0.01461087 0.19700001 4661530
0.055828162 -0.014462536 0.19500001 4397588
0.056163136 -0.014314203 0.193 4002315
0.056775011 -0.014240035 0.192 4133131
0.057077073 -0.014091702 0.19000001 4461067
0.057360325 -0.013943369 0.18800001 5180940
0.057934575 -0.013869201 0.18700001 5836819
0.058499418 -0.013795034 0.186 7414822
0.059374079 -0.013795034 0.186 12350067
0.060248736 -0.013795034 0.186 11955568
0.061123397 -0.013795034 0.186 11956340
0.061998051 -0.013795034 0.186 12417922
0.062872715 -0.013795034 0.186 13209753
0.0016555098 -0.01298984 0.18700001 2959145
0.0025348703 -0.01298984 0.18700001 4400166
0.0034142304 -0.01298984 0.18700001 11634051
0.0042706304 -0.012920376 0.186 12224904
0.0051452885 -0.012920376 0.186 12487565
0.0060199467 -0.012920376 0.186 11104888
0.0068946043 -0.012920376 0.186 11300724
0.0077692624 -0.012920376 0.186 9984349
0.0086439196 -0.012920376 0.186 10115419
0.0095185777 -0.012920376 0.186 10773345
0.010393236 -0.012920376 0.186 11301486
0.011267894 -0.012920376 0.186 10316396
0.0547303 -0.015004308 0.21600001 3216142
0.054971781 -0.014795915 0.21300001 3939863
0.054659478 -0.014448592 0.208 3281672
0.054300144 -0.014101271 0.20300001 3412488
0.05443817 -0.013892877 0.2 3412488
0.055101775 -0.013823414 0.19900002 3543560
0.055474371 -0.013684485 0.19700001 3739656
0.055828162 -0.013545556 0.19500001 4002315
0.056163136 -0.013406627 0.193 3804936
0.056775011 -0.013337162 0.192 4264717
0.056776665 -0.01312877 0.18900001 4459786
0.057360325 -0.013059305 0.18800001 5708058
0.057934575 -0.01298984 0.18700001 11628143
0.058499418 -0.012920376 0.186 12416887
0.059374079 -0.012920376 0.186 12021102
0.060248736 -0.012920376 0.186 12547448
0.061123397 -0.012920376 0.186 12614270
0.061998051 -0.012920376 0.186 12878473
0.062872715 -0.012920376 0.186 12025481
0.0016466568 -0.012045718 0.186 2629412
0.0025213147 -0.012045718 0.186 9595501
0.0033959725 -0.012045718 0.186 11237750
0.0042476701 -0.011980955 0.185 11697277
0.0051176255 -0.011980955 0.185 10644076
0.0060199467 -0.012045718 0.186 10379107
0.0068946043 -0.012045718 0.186 8997708
0.0077692624 -0.012045718 0.186 9458257
0.0086439196 -0.012045718 0.186 10839910
0.0095185777 -0.012045718 0.186 9854814
0.010393236 -0.012045718 0.186 4594461
0.011207313 -0.011980955 0.185 3612449
0.0547303 -0.013988576 0.21600001 2952455
0.054971781 -0.01379429 0.21300001 3018248
0.054659478 -0.01347048 0.208 3215111
0.054032657 -0.013081908 0.20200001 3346181
0.054165982 -0.012887623 0.19900002 3543560
0.055101775 -0.012887623 0.19900002 3740424
0.054911178 -0.012628575 0.19500001 3937033
0.055255562 -0.012499051 0.193 4067336
0.055581138 -0.012369528 0.19100001 4262407
0.056479309 -0.012369528 0.19100001 5116946
0.056776665 -0.012240004 0.18900001 9985114
0.057360325 -0.012175241 0.18800001 12549247
0.057934575 -0.01211048 0.18700001 11955570
0.058499418 -0.012045718 0.186 12020336
0.059374079 -0.012045718 0.186 12677753
0.060248736 -0.012045718 0.186 12019569
0.061123397 -0.012045718 0.186 13403534
0.061998051 -0.012045718 0.186 14260642
0.062872715 -0.012045718 0.186 13078682
0.0016378037 -0.011111001 0.185 2301219
0.0025077593 -0.011111001 0.185 10319735
0.0033777144 -0.011111001 0.185 11434357
0.0042476701 -0.011111001 0.185 10314595
0.0051176255 -0.011111001 0.185 8602696
0.0060199467 -0.011171061 0.186 8733253
0.0068946043 -0.011171061 0.186 8535872
0.0077692624 -0.011171061 0.186 10707552
0.0086439196 -0.011171061 0.186 8142910
0.0095185777 -0.011171061 0.186 7947330
0.010393236 -0.011171061 0.186 5056547
0.0547303 -0.012972844 0.21600001 3214343
0.054713696 -0.012732606 0.21200001 3411209
0.054659478 -0.012492368 0.208 3871242
0.053230193 -0.011951834 0.19900002 3937033
0.053621598 -0.011831715 0.19700001 3936520
0.053717304 -0.011651536 0.19400001 4001029
0.054066386 -0.011531416 0.192 4327428
0.05468297 -0.011471358 0.19100001 5839894
0.055290136 -0.011411298 0.19000001 8800838
0.056183606 -0.011411298 0.19000001 10905703
0.056776665 -0.011351239 0.18900001 10575968
0.057360325 -0.011291179 0.18800001 10772066
0.057934575 -0.01123112 0.18700001 10968423
0.058499418 -0.011171061 0.186 11823475
0.059374079 -0.011171061 0.186 12941186
0.060248736 -0.011171061 0.186 14847900
0.061123397 -0.011171061 0.186 15836851
0.061998051 -0.011171061 0.186 13011090
0.062872715 -0.011171061 0.186 12882073
0.063747369 -0.011171061 0.186 3216923
0.064622022 -0.011171061 0.186 3156528
0.065496683 -0.011171061 0.186 4934471
0.0016378037 -0.010241046 0.185 3221547
0.0025077593 -0.010241046 0.185 10121843
0.0033777144 -0.010241046 0.185 11434359
0.0042476701 -0.010241046 0.185 10643560
0.0051176255 -0.010241046 0.185 9064014
0.0060199467 -0.010296402 0.186 8799559
0.0068946043 -0.010296402 0.186 9193802
0.0077692624 -0.010296402 0.186 9720144
0.0086439196 -0.010296402 0.186 7417902
0.0095185777 -0.010296402 0.186 6169634
0.010337358 -0.010241046 0.185 5186589
0.011207313 -0.010241046 0.185 5056801
0.05189275 -0.010739258 0.19400001 6039070
0.052532833 -0.010683902 0.193 9064264
0.052609734 -0.010517831 0.19000001 8931395
0.0535032 -0.010517831 0.19000001 9325386
0.054110371 -0.010462474 0.18900001 9325386
0.054999135 -0.010462474 0.18900001 8800327
0.055887904 -0.010462474 0.18900001 9919585
0.056476258 -0.010407117 0.18800001 10182253
0.057055216 -0.010351759 0.18700001 10970742
0.057934575 -0.010351759 0.18700001 13535386
0.058499418 -0.010296402 0.186 16758989
0.059374079 -0.010296402 0.186 15442865
0.060248736 -0.010296402 0.186 16759233
0.061123397 -0.010296402 0.186 14324636
0.061998051 -0.010296402 0.186 13801888
0.062872715 -0.010296402 0.186 11438220
0.063747369 -0.010296402 0.186 9072748
0.064622022 -0.010296402 0.186 9142393
0.065496683 -0.010296402 0.186 6447457
0.0016378037 -0.0093710897 0.185 2761000
0.0025077593 -0.0093710897 0.185 9859698
0.0033777144 -0.0093710897 0.185 10447980
0.0042476701 -0.0093710897 0.185 10380904
0.0051176255 -0.0093710897 0.185 9854560
0.0060199467 -0.0094217444 0.186 10249318
0.0068946043 -0.0094217444 0.186 10445413
0.0077692624 -0.0094217444 0.186 10312796
0.0086439196 -0.0094217444 0.186 10378587
0.0095185777 -0.0094217444 0.186 10379872
0.010337358 -0.0093710897 0.185 10118497
0.011207313 -0.0093710897 0.185 8014920
0.012077268 -0.0093710897 0.185 5910573
0.012947224 -0.0093710897 0.185 5385512
0.039256949 -0.0094217444 0.186 4464674
0.039915845 -0.0093710897 0.185 6304820
0.040785797 -0.0093710897 0.185 5580327
0.041880921 -0.0094217444 0.186 6303536
0.042755578 -0.0094217444 0.186 6040878
0.043630235 -0.0094217444 0.186 7094082
0.044504896 -0.0094217444 0.186 7225922
0.045379553 -0.0094217444 0.186 6567222
0.04625421 -0.0094217444 0.186 7818320
0.047128871 -0.0094217444 0.186 11502730
0.048003525 -0.0094217444 0.186 12488342
0.049140971 -0.009472399 0.18700001 9328218
0.050822798 -0.0096243629 0.19000001 9654866
0.051716264 -0.0096243629 0.19000001 10312281
0.052332841 -0.0095737083 0.18900001 10114902
0.052940007 -0.0095230537 0.18800001 9785939
0.053824071 -0.0095230537 0.18800001 9918810
0.054708134 -0.0095230537 0.18800001 16236994
0.055592198 -0.0095230537 0.18800001 16239572
0.056175854 -0.009472399 0.18700001 16766182
0.057055216 -0.009472399 0.18700001 16762839
0.057934575 -0.009472399 0.18700001 14786736
0.058499418 -0.0094217444 0.186 15772861
0.059374079 -0.0094217444 0.186 14259874
0.060248736 -0.0094217444 0.186 15114922
0.061123397 -0.0094217444 0.186 14129571
0.061998051 -0.0094217444 0.186 10252158
0.062872715 -0.0094217444 0.186 3086370
0.063747369 -0.0094217444 0.186 1905427
0.064622022 -0.0094217444 0.186 2236188
0.0016378037 -0.0085011348 0.185 3940894
0.0025077593 -0.0085011348 0.185 6700339
0.0033777144 -0.0085011348 0.185 9593175
0.0042476701 -0.0085011348 0.185 10644839
0.0051176255 -0.0085011348 0.185 10973293
0.0060199467 -0.0085470863 0.186 11236726
0.0068946043 -0.0085470863 0.186 11828863
0.0077692624 -0.0085470863 0.186 11169650
0.0086439196 -0.0085470863 0.186 11235443
0.0095185777 -0.0085470863 0.186 11169650
0.010337358 -0.0085011348 0.185 11300976
0.011207313 -0.0085011348 0.185 10315878
0.012077268 -0.0085011348 0.185 10579048
0.012947224 -0.0085011348 0.185 9855327
0.01381718 -0.0085011348 0.185 9395292
0.014687136 -0.0085011348 0.185 8277326
0.01555709 -0.0085011348 0.185 7553863
0.016427046 -0.0085011348 0.185 5121059
0.017297002 -0.0085011348 0.185 4463645
0.018166957 -0.0085011348 0.185 3740949
0.019139815 -0.0085470863 0.186 4136990
0.020776823 -0.0085011348 0.185 2824730
0.021646779 -0.0085011348 0.185 3545627
0.022516733 -0.0085011348 0.185 3218207
0.023386689 -0.0085011348 0.185 2889502
0.024256645 -0.0085011348 0.185 3086881
0.025126601 -0.0085011348 0.185 2955295
0.025996557 -0.0085011348 0.185 3021341
0.026866512 -0.0085011348 0.185 2889755
0.027736466 -0.0085011348 0.185 3546910
0.028761052 -0.0085470863 0.186 4137764
0.029635709 -0.0085470863 0.186 5452341
0.030510368 -0.0085470863 0.186 6635329
0.031385027 -0.0085470863 0.186 6569536
0.032259684 -0.0085470863 0.186 7556945
0.033134341 -0.0085470863 0.186 7885912
0.034008998 -0.0085470863 0.186 7556431
0.034883656 -0.0085470863 0.186 8214361
0.035758317 -0.0085470863 0.186 8280668
0.036632974 -0.0085470863 0.186 7886682
0.037507631 -0.0085470863 0.186 8084061
0.038382288 -0.0085470863 0.186 8346463
0.039256949 -0.0085470863 0.186 9662323
0.040131606 -0.0085470863 0.186 11042947
0.041006263 -0.0085470863 0.186 10119276
0.041880921 -0.0085470863 0.186 10053224
0.042755578 -0.0085470863 0.186 10118247
0.043630235 -0.0085470863 0.186 10315113
0.044504896 -0.0085470863 0.186 9920353
0.045379553 -0.0085470863 0.186 9198174
0.04625421 -0.0085470863 0.186 14134196
0.047128871 -0.0085470863 0.186 13674417
0.048003525 -0.0085470863 0.186 14462648
0.049140971 -0.0085930387 0.18700001 9920101
0.05028782 -0.008638991 0.18800001 10839658
0.05117188 -0.008638991 0.18800001 11628143
0.05177905 -0.0085930387 0.18700001 11166822
0.052658409 -0.0085930387 0.18700001 10443099
0.053537775 -0.0085930387 0.18700001 9851993
0.054417133 -0.0085930387 0.18700001 15843783
0.055296496 -0.0085930387 0.18700001 15978199
0.055875447 -0.0085470863 0.186 16174298
0.056750108 -0.0085470863 0.186 16765150
0.057624765 -0.0085470863 0.186 12748180
0.058499418 -0.0085470863 0.186 13471641
0.059374079 -0.0085470863 0.186 14392741
0.060248736 -0.0085470863 0.186 13998499
0.061123397 -0.0085470863 0.186 8606052
0.062331375 -0.0085930387 0.18700001 3481639
0.063210741 -0.0085930387 0.18700001 2826791
0.063747369 -0.0085470863 0.186 1972763
0.064622022 -0.0085470863 0.186 2433314
0.0025077593 -0.0076311789 0.185 9860454
0.0033777144 -0.0076311789 0.185 11503482
0.0042476701 -0.0076311789 0.185 12816780
0.0051176255 -0.0076311789 0.185 11236726
0.0060199467 -0.0076724286 0.186 11565178
0.0068946043 -0.0076724286 0.186 11959936
0.0077692624 -0.0076724286 0.186 11236213
0.0086439196 -0.0076724286 0.186 11762557
0.0095185777 -0.0076724286 0.186 11630971
0.010337358 -0.0076311789 0.185 11827580
0.011207313 -0.0076311789 0.185 11432822
0.012077268 -0.0076311789 0.185 9920353
0.012947224 -0.0076311789 0.185 13277340
0.01381718 -0.0076311789 0.185 13081245
0.014687136 -0.0076311789 0.185 10910076
0.01555709 -0.0076311789 0.185 9790565
0.016427046 -0.0076311789 0.185 10248802
0.017297002 -0.0076311789 0.185 10446179
0.018166957 -0.0076311789 0.185 10315363
0.019036911 -0.0076311789 0.185 10118495
0.019906867 -0.0076311789 0.185 8935506
0.020776823 -0.0076311789 0.185 8607573
0.021646779 -0.0076311789 0.185 8213328
0.022516733 -0.0076311789 0.185 9268335
0.023386689 -0.0076311789 0.185 11242386
0.024256645 -0.0076311789 0.185 11044494
0.025126601 -0.0076311789 0.185 9790829
0.025996557 -0.0076311789 0.185 9593186
0.026866512 -0.0076311789 0.185 10316396
0.027736466 -0.0076311789 0.185 9921638
0.028761052 -0.0076724286 0.186 9527393
0.029635709 -0.0076724286 0.186 9592932
0.030510368 -0.0076724286 0.186 9134180
0.031385027 -0.0076724286 0.186 13214629
0.032259684 -0.0076724286 0.186 12819871
0.033134341 -0.0076724286 0.186 8344151
0.034008998 -0.0076724286 0.186 9526626
0.034883656 -0.0076724286 0.186 9724259
0.035758317 -0.0076724286 0.186 9330014
0.036632974 -0.0076724286 0.186 9857388
0.037507631 -0.0076724286 0.186 10450040
0.038382288 -0.0076724286 0.186 9595503
0.039256949 -0.0076724286 0.186 13807028
0.040131606 -0.0076724286 0.186 13742005
0.041006263 -0.0076724286 0.186 12686491
0.041880921 -0.0076724286 0.186 11171964
0.042755578 -0.0076724286 0.186 11895174
0.043630235 -0.0076724286 0.186 11566209
0.044504896 -0.0076724286 0.186 11499900
0.045379553 -0.0076724286 0.186 11039349
0.04625421 -0.0076724286 0.186 13541546
0.047128871 -0.0076724286 0.186 14463931
0.048003525 -0.0076724286 0.186 14201013
0.049140971 -0.0077136783 0.18700001 12947862
0.05002033 -0.0077136783 0.18700001 12023932
0.050899688 -0.0077136783 0.18700001 12022903
0.051502157 -0.0076724286 0.186 11232617
0.052376814 -0.0076724286 0.186 11034468
0.053251475 -0.0076724286 0.186 10773349
0.054126129 -0.0076724286 0.186 13934757
0.055000793 -0.0076724286 0.186 16173266
0.055875447 -0.0076724286 0.186 16764377
0.056750108 -0.0076724286 0.186 14722222
0.057624765 -0.0076724286 0.186 13143188
0.058499418 -0.0076724286 0.186 12815508
0.059374079 -0.0076724286 0.186 13014686
0.0033777144 -0.0067612235 0.185 2693146
0.0042476701 -0.0067612235 0.185 10715527
0.0051176255 -0.0067612235 0.185 11107972
0.0060199467 -0.006797771 0.186 11236224
0.0068946043 -0.006797771 0.186 12944283
0.0077692624 -0.006797771 0.186 12550801
0.0086439196 -0.006797771 0.186 12287879
0.0095185777 -0.006797771 0.186 11827580
0.010337358 -0.0067612235 0.185 11893373
0.011207313 -0.0067612235 0.185 11630201
0.012077268 -0.0067612235 0.185 10118247
0.012947224 -0.0067612235 0.185 13344671
0.01381718 -0.0067612235 0.185 13344930
0.014687136 -0.0067612235 0.185 12950174
0.01555709 -0.0067612235 0.185 13409440
0.016427046 -0.0067612235 0.185 9919583
0.017297002 -0.0067612235 0.185 10247775
0.018166957 -0.0067612235 0.185 10116187
0.019036911 -0.0067612235 0.185 9853528
0.019906867 -0.0067612235 0.185 10118497
0.020776823 -0.0067612235 0.185 12093572
0.021646779 -0.0067612235 0.185 13938352
0.022516733 -0.0067612235 0.185 13676725
0.023386689 -0.0067612235 0.185 13676727
0.024256645 -0.0067612235 0.185 14004661
0.025126601 -0.0067612235 0.185 9001311
0.025996557 -0.0067612235 0.185 9592419
0.026866512 -0.0067612235 0.185 10118247
0.027736466 -0.0067612235 0.185 10776175
0.028761052 -0.006797771 0.186 10776175
0.029635709 -0.006797771 0.186 10578796
0.030510368 -0.006797771 0.186 9790311
0.031385027 -0.006797771 0.186 13608874
0.032259684 -0.006797771 0.186 13806253
0.033134341 -0.006797771 0.186 10120560
0.034008998 -0.006797771 0.186 10776177
0.034883656 -0.006797771 0.186 11170935
0.035758317 -0.006797771 0.186 11566463
0.036632974 -0.006797771 0.186 12290445
0.037507631 -0.006797771 0.186 11829894
0.038382288 -0.006797771 0.186 11237759
0.039256949 -0.006797771 0.186 12884899
0.040131606 -0.006797771 0.186 14399167
0.041006263 -0.006797771 0.186 13936304
0.041880921 -0.006797771 0.186 11434625
0.042755578 -0.006797771 0.186 11960197
0.043630235 -0.006797771 0.186 11368060
0.044504896 -0.006797771 0.186 11499387
0.045379553 -0.006797771 0.186 11169652
0.04625421 -0.006797771 0.186 10644339
0.047128871 -0.006797771 0.186 15054269
0.048003525 -0.006797771 0.186 14593716
0.048878185 -0.006797771 0.186 15183793
0.049752843 -0.006797771 0.186 11628404
0.050627496 -0.006797771 0.186 11495535
0.051502157 -0.006797771 0.186 11495535
0.052376814 -0.006797771 0.186 11364973
0.053251475 -0.006797771 0.186 10445154
0.054126129 -0.006797771 0.186 10906478
0.055000793 -0.006797771 0.186 11104375
0.055875447 -0.006797771 0.186 10973302
0.056750108 -0.006797771 0.186 13211547
0.057624765 -0.006797771 0.186 12489625
0.0042476701 -0.0058912677 0.185 3351340
0.0051176255 -0.0058912677 0.185 10977680
0.0060199467 -0.0059231124 0.186 11369607
0.0068946043 -0.0059231124 0.186 16762838
0.0077692624 -0.0059231124 0.186 16766687
0.0086439196 -0.0059231124 0.186 11959938
0.0095185777 -0.0059231124 0.186 12024959
0.010337358 -0.0058912677 0.185 12354178
0.011207313 -0.0058912677 0.185 11828863
0.012077268 -0.0058912677 0.185 12093834
0.012947224 -0.0058912677 0.185 13673895
0.01381718 -0.0058912677 0.185 13871274
0.014687136 -0.0058912677 0.185 13805483
0.01555709 -0.0058912677 0.185 12750483
0.016427046 -0.0058912677 0.185 11301238
0.017297002 -0.0058912677 0.185 10906480
0.018166957 -0.0058912677 0.185 10906478
0.019036911 -0.0058912677 0.185 10906478
0.019906867 -0.0058912677 0.185 10710382
0.020776823 -0.0058912677 0.185 9790825
0.021646779 -0.0058912677 0.185 13478063
0.022516733 -0.0058912677 0.185 13544628
0.023386689 -0.0058912677 0.185 13742518
0.024256645 -0.0058912677 0.185 14267833
0.025126601 -0.0058912677 0.185 10515320
0.025996557 -0.0058912677 0.185 11040632
0.026866512 -0.0058912677 0.185 11369084
0.027736466 -0.0058912677 0.185 11698047
0.028761052 -0.0059231124 0.186 11368312
0.029635709 -0.0059231124 0.186 11499898
0.030510368 -0.0059231124 0.186 10908531
0.031385027 -0.0059231124 0.186 14134446
0.032259684 -0.0059231124 0.186 14003632
0.033134341 -0.0059231124 0.186 13080475
0.034008998 -0.0059231124 0.186 12289162
0.034883656 -0.0059231124 0.186 12420235
0.035758317 -0.0059231124 0.186 12223110
0.036632974 -0.0059231124 0.186 12157830
0.037507631 -0.0059231124 0.186 11697279
0.038382288 -0.0059231124 0.186 11434877
0.039256949 -0.0059231124 0.186 11435136
0.040131606 -0.0059231124 0.186 15384515
0.041006263 -0.0059231124 0.186 13013659
0.041880921 -0.0059231124 0.186 11433855
0.042755578 -0.0059231124 0.186 11564926
0.043630235 -0.0059231124 0.186 11169652
0.044504896 -0.0059231124 0.186 11300724
0.045379553 -0.0059231124 0.186 11037552
0.04625421 -0.0059231124 0.186 11892861
0.047128871 -0.0059231124 0.186 13669786
0.048003525 -0.0059231124 0.186 16433860
0.048878185 -0.0059231124 0.186 14458527
0.049752843 -0.0059231124 0.186 11300463
0.050627496 -0.0059231124 0.186 11037291
0.051502157 -0.0059231124 0.186 10970728
0.052376814 -0.0059231124 0.186 10510947
0.053251475 -0.0059231124 0.186 10643306
0.054126129 -0.0059231124 0.186 10579050
0.055000793 -0.0059231124 0.186 11173500
0.0060199467 -0.0050484552 0.186 9727350
0.0068946043 -0.0050484552 0.186 10910080
0.0077692624 -0.0050484552 0.186 10448243
0.0086439196 -0.0050484552 0.186 11236728
0.0095185777 -0.0050484552 0.186 11762811
0.010337358 -0.0050213127 0.185 11367281
0.011207313 -0.0050213127 0.185 11500152
0.012077268 -0.0050213127 0.185 13606559
0.012947224 -0.0050213127 0.185 14199726
0.01381718 -0.0050213127 0.185 14069425
0.014687136 -0.0050213127 0.185 14200239
0.01555709 -0.0050213127 0.185 10974072
0.016427046 -0.0050213127 0.185 11827582
0.017297002 -0.0050213127 0.185 11827582
0.018166957 -0.0050213127 0.185 11761789
0.019036911 -0.0050213127 0.185 11565180
0.019906867 -0.0050213127 0.185 11368314
0.020776823 -0.0050213127 0.185 9725034
0.021646779 -0.0050213127 0.185 13872821
0.022516733 -0.0050213127 0.185 13281454
0.023386689 -0.0050213127 0.185 13611186
0.024256645 -0.0050213127 0.185 13873845
0.025126601 -0.0050213127 0.185 10120560
0.025996557 -0.0050213127 0.185 11105910
0.026866512 -0.0050213127 0.185 11565178
0.027736466 -0.0050213127 0.185 11565178
0.028761052 -0.0050484552 0.186 11827580
0.029635709 -0.0050484552 0.186 11762041
0.030510368 -0.0050484552 0.186 11499639
0.031385027 -0.0050484552 0.186 14460583
0.032259684 -0.0050484552 0.186 14527661
0.033134341 -0.0050484552 0.186 14328486
0.034008998 -0.0050484552 0.186 12288133
0.034883656 -0.0050484552 0.186 12222340
0.035758317 -0.0050484552 0.186 11827068
0.036632974 -0.0050484552 0.186 11301236
0.037507631 -0.0050484552 0.186 10512490
0.038382288 -0.0050484552 0.186 11368314
0.039256949 -0.0050484552 0.186 11631486
0.040131606 -0.0050484552 0.186 12026244
0.041006263 -0.0050484552 0.186 12091270
0.041880921 -0.0050484552 0.186 11762305
0.042755578 -0.0050484552 0.186 10643824
0.043630235 -0.0050484552 0.186 10445929
0.044504896 -0.0050484552 0.186 10577001
0.045379553 -0.0050484552 0.186 11103343
0.04625421 -0.0050484552 0.186 11432308
0.047128871 -0.0050484552 0.186 10905964
0.048003525 -0.0050484552 0.186 10446181
0.048878185 -0.0050484552 0.186 10841709
0.049752843 -0.0050484552 0.186 11961219
0.050627496 -0.0050484552 0.186 11698047
0.051502157 -0.0050484552 0.186 11895426
0.052376814 -0.0050484552 0.186 11501697
0.053251475 -0.0050484552 0.186 11897484
0.0068946043 -0.0041737971 0.186 9993341
0.0077692624 -0.0041737971 0.186 10123644
0.0086439196 -0.0041737971 0.186 9333874
0.0095185777 -0.0041737971 0.186 9068387
0.010337358 -0.0041513573 0.185 9790565
0.011207313 -0.0041513573 0.185 10184810
0.012077268 -0.0041513573 0.185 10842486
0.012947224 -0.0041513573 0.185 10842486
0.01381718 -0.0041513573 0.185 10119530
0.014687136 -0.0041513573 0.185 13343387
0.01555709 -0.0041513573 0.185 10578798
0.016427046 -0.0041513573 0.185 10709869
0.017297002 -0.0041513573 0.185 10511720
0.018166957 -0.0041513573 0.185 10511720
0.019036911 -0.0041513573 0.185 10643306
0.019906867 -0.0041513573 0.185 10513005
0.020776823 -0.0041513573 0.185 9658214
0.021646779 -0.0041513573 0.185 12685205
0.022516733 -0.0041513573 0.185 12685717
0.023386689 -0.0041513573 0.185 11041916
0.024256645 -0.0041513573 0.185 11040632
0.025126601 -0.0041513573 0.185 9722974
0.025996557 -0.0041513573 0.185 10050655
0.026866512 -0.0041513573 0.185 10313827
0.027736466 -0.0041513573 0.185 10642279
0.028761052 -0.0041737971 0.186 10576740
0.029635709 -0.0041737971 0.186 10510947
0.030510368 -0.0041737971 0.186 10708326
0.031385027 -0.0041737971 0.186 11563381
0.032259684 -0.0041737971 0.186 11497588
0.033134341 -0.0041737971 0.186 11958652
0.034008998 -0.0041737971 0.186 11563894
0.034883656 -0.0041737971 0.186 11563894
0.035758317 -0.0041737971 0.186 10971759
0.036632974 -0.0041737971 0.186 10445929
0.037507631 -0.0041737971 0.186 9854562
0.038382288 -0.0041737971 0.186 10776693
0.039256949 -0.0041737971 0.186 11303291
0.040131606 -0.0041737971 0.186 11040119
0.041006263 -0.0041737971 0.186 11039349
0.041880921 -0.0041737971 0.186 10513005
0.042755578 -0.0041737971 0.186 10644337
0.043630235 -0.0041737971 0.186 10052454
0.044504896 -0.0041737971 0.186 10973556
0.045379553 -0.0041737971 0.186 11170935
0.04625421 -0.0041737971 0.186 11105912
0.047128871 -0.0041737971 0.186 11040632
0.048003525 -0.0041737971 0.186 11107709
0.048878185 -0.0041737971 0.186 10976636
0.049752843 -0.0041737971 0.186 10845820
0.050627496 -0.0041737971 0.186 10912126
0.0077692624 -0.0032991392 0.186 16776699
0.0086439196 -0.0032991392 0.186 12629686
0.0095185777 -0.0032991392 0.186 9600126
0.010337358 -0.0032814017 0.185 9924468
0.011207313 -0.0032814017 0.185 10251378
0.012077268 -0.0032814017 0.185 10382448
0.012947224 -0.0032814017 0.185 10316655
0.01381718 -0.0032814017 0.185 10316655
0.014687136 -0.0032814017 0.185 10251116
0.01555709 -0.0032814017 0.185 10316907
0.016427046 -0.0032814017 0.185 10119015
0.017297002 -0.0032814017 0.185 10183525
0.018166957 -0.0032814017 0.185 9985376
0.019036911 -0.0032814017 0.185 9854560
0.019906867 -0.0032814017 0.185 9788767
0.020776823 -0.0032814017 0.185 10184040
0.021646779 -0.0032814017 0.185 9658466
0.022516733 -0.0032814017 0.185 9987431
0.023386689 -0.0032814017 0.185 10118247
0.024256645 -0.0032814017 0.185 9657694
0.025126601 -0.0032814017 0.185 9788767
0.025996557 -0.0032814017 0.185 9853790
0.026866512 -0.0032814017 0.185 10117734
0.027736466 -0.0032814017 0.185 10380906
0.028761052 -0.0032991392 0.186 10248550
0.029635709 -0.0032991392 0.186 10314341
0.030510368 -0.0032991392 0.186 10511720
0.031385027 -0.0032991392 0.186 10774892
0.032259684 -0.0032991392 0.186 11103343
0.033134341 -0.0032991392 0.186 11103857
0.034008998 -0.0032991392 0.186 11170420
0.034883656 -0.0032991392 0.186 10974324
0.035758317 -0.0032991392 0.186 11369595
0.036632974 -0.0032991392 0.186 11435390
0.037507631 -0.0032991392 0.186 11106685
0.038382288 -0.0032991392 0.186 10646904
0.039256949 -0.0032991392 0.186 10120560
0.040131606 -0.0032991392 0.186 9660009
0.041006263 -0.0032991392 0.186 9857388
0.041880921 -0.0032991392 0.186 10448755
0.042755578 -0.0032991392 0.186 10975869
0.043630235 -0.0032991392 0.186 11305601
0.044504896 -0.0032991392 0.186 10976382
0.045379553 -0.0032991392 0.186 10713980
0.04625421 -0.0032991392 0.186 10386042
0.047128871 -0.0032991392 0.186 11111820
0.048003525 -0.0032991392 0.186 11111822
0.0086439196 -0.0024244811 0.186 16580603
0.0095185777 -0.0024244811 0.186 16777211
0.010337358 -0.0024114463 0.185 15129820
0.011207313 -0.0024114463 0.185 10784402
0.012077268 -0.0024114463 0.185 9728634
0.012947224 -0.0024114463 0.185 9990520
0.01381718 -0.0024114463 0.185 9529708
0.014687136 -0.0024114463 0.185 9923694
0.01555709 -0.0024114463 0.185 9989741
0.016427046 -0.0024114463 0.185 10055021
0.017297002 -0.0024114463 0.185 9988458
0.018166957 -0.0024114463 0.185 10251630
0.019036911 -0.0024114463 0.185 10646388
0.019906867 -0.0024114463 0.185 9856618
0.020776823 -0.0024114463 0.185 10119790
0.021646779 -0.0024114463 0.185 10317939
0.022516733 -0.0024114463 0.185 10515572
0.023386689 -0.0024114463 0.185 10712181
0.024256645 -0.0024114463 0.185 11172730
0.025126601 -0.0024114463 0.185 9922665
0.025996557 -0.0024114463 0.185 10317423
0.026866512 -0.0024114463 0.185 10712181
0.027736466 -0.0024114463 0.185 10909046
0.028761052 -0.0024244811 0.186 10514034
0.029635709 -0.0024244811 0.186 10448241
0.030510368 -0.0024244811 0.186 10777206
0.031385027 -0.0024244811 0.186 11040632
0.032259684 -0.0024244811 0.186 11041146
0.033134341 -0.0024244811 0.186 10910330
0.034008998 -0.0024244811 0.186 10450038
0.034883656 -0.0024244811 0.186 10647417
0.035758317 -0.0024244811 0.186 10385017
0.036632974 -0.0024244811 0.186 10056565
0.037507631 -0.0024244811 0.186 10385532
0.038382288 -0.0024244811 0.186 10254460
0.039256949 -0.0024244811 0.186 10386044
0.040131606 -0.0024244811 0.186 9793907
0.041006263 -0.0024244811 0.186 9596528
0.041880921 -0.0024244811 0.186 9924977
0.042755578 -0.0024244811 0.186 10319989
0.043630235 -0.0024244811 0.186 11439500
0.044504896 -0.0024244811 0.186 11639449
0.045379553 -0.0024244811 0.186 12166820
0.04625421 -0.0024244811 0.186 12101795
0.012142551 -0.0015498232 0.186 16777211
0.012947224 -0.0015414909 0.185 16644340
0.01381718 -0.0015414909 0.185 12169133
0.014687136 -0.0015414909 0.185 10455689
0.01555709 -0.0015414909 0.185 9859700
0.016427046 -0.0015414909 0.185 9793393
0.017297002 -0.0015414909 0.185 9793393
0.018166957 -0.0015414909 0.185 9859186
0.019036911 -0.0015414909 0.185 10121843
0.019906867 -0.0015414909 0.185 9529706
0.020776823 -0.0015414909 0.185 9793907
0.021646779 -0.0015414909 0.185 10386046
0.022516733 -0.0015414909 0.185 10386816
0.023386689 -0.0015414909 0.185 10319999
0.024256645 -0.0015414909 0.185 10451325
0.025126601 -0.0015414909 0.185 10517116
0.025996557 -0.0015414909 0.185 10780288
0.026866512 -0.0015414909 0.185 10713982
0.027736466 -0.0015414909 0.185 10450810
0.028761052 -0.0015498232 0.186 10253433
0.029635709 -0.0015498232 0.186 10319226
0.030510368 -0.0015498232 0.186 10517118
0.031385027 -0.0015498232 0.186 10319739
0.032259684 -0.0015498232 0.186 10253946
0.033134341 -0.0015498232 0.186 10253946
0.034008998 -0.0015498232 0.186 10253946
0.034883656 -0.0015498232 0.186 10319737
0.035758317 -0.0015498232 0.186 9663091
0.036632974 -0.0015498232 0.186 9599614
0.037507631 -0.0015498232 0.186 9469576
0.038382288 -0.0015498232 0.186 9601675
0.039256949 -0.0015498232 0.186 10520977
0.040131606 -0.0015498232 0.186 12097432
0.028761052 -0.00067516527 0.186 12233131
0.029635709 -0.00067516527 0.186 13418435
0.030510368 -0.00067516527 0.186 14011601
