# .PCD v0.7 - Point Cloud Data file format
VERSION 0.7
FIELDS x y z rgb
SIZE 4 4 4 4
TYPE F F F U
COUNT 1 1 1 1
WIDTH 1127
HEIGHT 1
VIEWPOINT 0 0 0 1 0 0 0
POINTS 1127
DATA ascii
0.0042476701 0.0088979751 0.185 12350328
0.0051176255 0.0088979751 0.185 12284283
0.0060199467 0.0089460723 0.186 14129573
0.0068946043 0.0089460723 0.186 11633551
0.0078110327 0.0089941695 0.18700001 14066860
0.0086903926 0.0089941695 0.18700001 13008004
0.009569753 0.0089941695 0.18700001 12811395
0.010504992 0.0090422668 0.18800001 13404302
0.011389053 0.0090422668 0.18800001 12877960
0.012273116 0.0090422668 0.18800001 13010059
0.01315718 0.0090422668 0.18800001 12354444
0.014115931 0.009090364 0.18900001 16770284
0.015004696 0.009090364 0.18900001 13145756
0.015893461 0.009090364 0.18900001 10580595
0.016782226 0.009090364 0.18900001 12948627
0.017670993 0.009090364 0.18900001 16769768
0.018559758 0.009090364 0.18900001 15644346
0.019448522 0.009090364 0.18900001 14785439
0.020444892 0.0091384612 0.19000001 16758459
0.02133836 0.0091384612 0.19000001 12945036
0.022231828 0.0091384612 0.19000001 16772592
0.023125295 0.0091384612 0.19000001 16773367
0.024145178 0.0091865584 0.19100001 15715546
0.02504335 0.0091865584 0.19100001 12687774
0.025941519 0.0091865584 0.19100001 16762825
0.02698021 0.0092346547 0.192 16365241
0.027883084 0.0092346547 0.192 16758975
0.028785953 0.0092346547 0.192 15840701
0.029688828 0.0092346547 0.192 16775673
0.0305917 0.0092346547 0.192 16711673
0.031658608 0.0092827519 0.193 16777211
0.032566182 0.0092827519 0.193 16774392
0.03347376 0.0092827519 0.193 15907014
0.034381334 0.0092827519 0.193 16696014
0.035288908 0.0092827519 0.193 15187906
0.036196481 0.0092827519 0.193 16775154
0.037104059 0.0092827519 0.193 16777209
0.038011633 0.0092827519 0.193 16776953
0.03891921 0.0092827519 0.193 16773616
0.039826784 0.0092827519 0.193 16764876
0.040734358 0.0092827519 0.193 16764365
0.041641936 0.0092827519 0.193 16565194
0.042769972 0.0093308492 0.19400001 11437453
-0.01600197 0.0093983328 0.178 3815741
-0.015250128 0.0094511323 0.17900001 4601143
-0.014569375 0.0095567312 0.18100001 8872030
-0.01371823 0.0095567312 0.18100001 13144464
-0.012938173 0.0096095316 0.18200001 13075850
-0.012082324 0.0096095316 0.18200001 12548225
-0.011226477 0.0096095316 0.18200001 12679293
-0.010370629 0.0096095316 0.18200001 13204610
-0.0095147807 0.0096095316 0.18200001 12086125
-0.0087065091 0.0096623311 0.18300001 12546163
-0.0078459587 0.0096623311 0.18300001 12348784
-0.0069854083 0.0096623311 0.18300001 13336196
-0.0061248573 0.0096623311 0.18300001 12021361
-0.0052643064 0.0096623311 0.18300001 11364201
-0.004403756 0.0096623311 0.18300001 11496053
-0.0035432056 0.0096623311 0.18300001 11693184
-0.0026826551 0.0096623311 0.18300001 10443367
-0.0018221044 0.0096623311 0.18300001 10246238
-0.00096680829 0.0097151306 0.18400002 10838123
-0.00010155528 0.0097151306 0.18400002 13142678
0.00076369772 0.0097151306 0.18400002 10511208
0.0016289508 0.0097151306 0.18400002 9984862
0.0025077593 0.00976793 0.185 10904168
0.0033777144 0.00976793 0.185 9323596
0.0042476701 0.00976793 0.185 11823478
0.0051176255 0.00976793 0.185 10706537
0.0060199467 0.0098207295 0.186 10578548
0.0068946043 0.0098207295 0.186 11632781
0.0078110327 0.009873529 0.18700001 11434373
0.0086903926 0.009873529 0.18700001 12417668
0.009569753 0.009873529 0.18700001 12417407
0.010504992 0.0099263294 0.18800001 12285821
0.011389053 0.0099263294 0.18800001 11956858
0.012273116 0.0099263294 0.18800001 11627893
0.01315718 0.0099263294 0.18800001 10839418
0.014115931 0.0099791288 0.18900001 9590118
0.015004696 0.0099791288 0.18900001 9262436
0.015893461 0.0099791288 0.18900001 10316154
0.016782226 0.0099791288 0.18900001 9921649
0.017670993 0.0099791288 0.18900001 9787749
0.018559758 0.0099791288 0.18900001 10247523
0.019448522 0.0099791288 0.18900001 11562098
0.020444892 0.010031928 0.19000001 12218236
0.02133836 0.010031928 0.19000001 12482952
0.022231828 0.010031928 0.19000001 11104125
0.023125295 0.010031928 0.19000001 15648467
0.024145178 0.010084728 0.19100001 15583958
0.02504335 0.010084728 0.19100001 15120060
0.025941519 0.010084728 0.19100001 15577006
0.02698021 0.010137527 0.192 16763594
0.027883084 0.010137527 0.192 15575725
0.028785953 0.010137527 0.192 11829896
0.029688828 0.010137527 0.192 16776441
0.0305917 0.010137527 0.192 16711422
0.031658608 0.010190327 0.193 16773105
0.032566182 0.010190327 0.193 15118781
0.03347376 0.010190327 0.193 13928854
0.034381334 0.010190327 0.193 15049127
0.035288908 0.010190327 0.193 16307412
0.036196481 0.010190327 0.193 16777207
0.037104059 0.010190327 0.193 16711673
0.038011633 0.010190327 0.193 16776695
0.03891921 0.010190327 0.193 15909312
0.039826784 0.010190327 0.193 15968941
0.040734358 0.010190327 0.193 16098987
0.041641936 0.010190327 0.193 15968941
0.04254951 0.010190327 0.193 14917541
0.043457083 0.010190327 0.193 13472145
0.044364657 0.010190327 0.193 6175544
0.045506805 0.010243126 0.19400001 4405308
0.046179809 0.010190327 0.193 3422008
-0.015250128 0.010292873 0.17900001 5980481
-0.014569375 0.010407878 0.18100001 8542295
-0.01371823 0.010407878 0.18100001 13341843
-0.012938173 0.01046538 0.18200001 13274766
-0.012082324 0.01046538 0.18200001 13273999
-0.01128816 0.010522882 0.18300001 13009544
-0.010427611 0.010522882 0.18300001 14520470
-0.0095670596 0.010522882 0.18300001 16756661
-0.0087065091 0.010522882 0.18300001 16757177
-0.0078459587 0.010522882 0.18300001 15638438
-0.0069854083 0.010522882 0.18300001 14059919
-0.0061248573 0.010522882 0.18300001 12219512
-0.0052643064 0.010522882 0.18300001 11562865
-0.004403756 0.010522882 0.18300001 16630987
-0.0035432056 0.010522882 0.18300001 16766945
-0.0026826551 0.010522882 0.18300001 16299975
-0.0018221044 0.010522882 0.18300001 11825272
-0.00096680829 0.010580384 0.18400002 12022912
-0.00010155528 0.010580384 0.18400002 13735075
0.00076369772 0.010580384 0.18400002 12023680
0.0016289508 0.010580384 0.18400002 11496305
0.0025077593 0.010637886 0.185 11364719
0.0033777144 0.010637886 0.185 12417661
0.0042476701 0.010637886 0.185 16765910
0.0051176255 0.010637886 0.185 16762827
0.0060199467 0.010695388 0.186 14724788
0.0068946043 0.010695388 0.186 14330032
0.0078110327 0.01075289 0.18700001 13405846
0.0086903926 0.01075289 0.18700001 14259095
0.009569753 0.01075289 0.18700001 14324888
0.010504992 0.010810392 0.18800001 14259095
0.011389053 0.010810392 0.18800001 14062232
0.012273116 0.010810392 0.18800001 11299191
0.01315718 0.010810392 0.18800001 16366281
0.014115931 0.010867895 0.18900001 15642558
0.015004696 0.010867895 0.18900001 10249329
0.015893461 0.010867895 0.18900001 12552854
0.016782226 0.010867895 0.18900001 10510956
0.017670993 0.010867895 0.18900001 12484744
0.018559758 0.010867895 0.18900001 11432310
0.019448522 0.010867895 0.18900001 11826814
0.020444892 0.010925396 0.19000001 16431815
0.02133836 0.010925396 0.19000001 16765410
0.022231828 0.010925396 0.19000001 12487325
0.023125295 0.010925396 0.19000001 9070201
0.024145178 0.010982899 0.19100001 12029341
0.02504335 0.010982899 0.19100001 10248296
0.025941519 0.010982899 0.19100001 11165795
0.02698021 0.0110404 0.192 11691621
0.027883084 0.0110404 0.192 12942715
0.028785953 0.0110404 0.192 15054005
0.029688828 0.0110404 0.192 16775671
0.0305917 0.0110404 0.192 16772848
0.031658608 0.011097902 0.193 13933476
0.032566182 0.011097902 0.193 13927820
0.03347376 0.011097902 0.193 14387081
0.034381334 0.011097902 0.193 14256011
0.035288908 0.011097902 0.193 14589343
0.036196481 0.011097902 0.193 16774388
0.037104059 0.011097902 0.193 16776439
0.038011633 0.011097902 0.193 16771562
0.03891921 0.011097902 0.193 16759227
0.039826784 0.011097902 0.193 15767707
0.040734358 0.011097902 0.193 16163238
0.041641936 0.011097902 0.193 15704740
0.04254951 0.011097902 0.193 14192530
0.043457083 0.011097902 0.193 14588058
0.044364657 0.011097902 0.193 13081499
0.045506805 0.011155404 0.19400001 7958130
0.046179809 0.011097902 0.193 8029832
0.047087386 0.011097902 0.193 10201769
-0.014569375 0.011259023 0.18100001 11504002
-0.013794022 0.011321228 0.18200001 9987681
-0.013009262 0.011383432 0.18300001 11762041
-0.012148711 0.011383432 0.18300001 13275026
-0.01128816 0.011383432 0.18300001 13339792
-0.010427611 0.011383432 0.18300001 13863567
-0.0095670596 0.011383432 0.18300001 15507365
-0.0087065091 0.011383432 0.18300001 15375266
-0.0078459587 0.011383432 0.18300001 16691639
-0.0069854083 0.011383432 0.18300001 16494258
-0.0061248573 0.011383432 0.18300001 15705769
-0.0052643064 0.011383432 0.18300001 13732751
-0.004403756 0.011383432 0.18300001 16766940
-0.0035625673 0.011445637 0.18400002 16766683
-0.0026973144 0.011445637 0.18400002 16765404
-0.0018320613 0.011445637 0.18400002 15906496
-0.00096680829 0.011445637 0.18400002 13011606
-0.00010155528 0.011445637 0.18400002 14590638
0.00076369772 0.011445637 0.18400002 14786470
0.0016378037 0.011507841 0.185 15113377
0.0025077593 0.011507841 0.185 14061716
0.0033777144 0.011507841 0.185 14918054
0.0042476701 0.011507841 0.185 16764110
0.0051452885 0.011570046 0.186 16632270
0.0060199467 0.011570046 0.186 14528695
0.0068946043 0.011570046 0.186 14001579
0.0078110327 0.01163225 0.18700001 14655906
0.0086903926 0.01163225 0.18700001 14125710
0.009569753 0.01163225 0.18700001 14059917
0.010504992 0.011694455 0.18800001 14915996
0.011389053 0.011694455 0.18800001 13141130
0.012273116 0.011694455 0.18800001 13865886
0.01315718 0.011694455 0.18800001 16764119
0.014115931 0.011756659 0.18900001 16104647
0.015004696 0.011756659 0.18900001 12421520
0.015893461 0.011756659 0.18900001 13342620
0.016782226 0.011756659 0.18900001 13274514
0.017670993 0.011756659 0.18900001 13010829
0.018559758 0.011756659 0.18900001 12024447
0.019448522 0.011756659 0.18900001 11563896
0.020444892 0.011818864 0.19000001 16764119
0.02133836 0.011818864 0.19000001 16764378
0.022231828 0.011818864 0.19000001 16767464
0.023125295 0.011818864 0.19000001 14269385
0.024145178 0.011881068 0.19100001 10515070
0.02504335 0.011881068 0.19100001 12089475
0.025941519 0.011881068 0.19100001 12153465
0.02698021 0.011943272 0.192 13007229
0.027883084 0.011943272 0.192 10243923
0.028785953 0.011943272 0.192 9785948
0.029688828 0.011943272 0.192 9658216
0.0305917 0.011943272 0.192 10709880
0.031658608 0.012005477 0.193 11826816
0.032566182 0.012005477 0.193 11628406
0.03347376 0.012005477 0.193 12548993
0.034381334 0.012005477 0.193 12614016
0.035288908 0.012005477 0.193 13141391
0.036196481 0.012005477 0.193 12353158
0.037104059 0.012005477 0.193 16760263
0.038011633 0.012005477 0.193 13073540
0.03891921 0.012005477 0.193 13663104
0.039826784 0.012005477 0.193 13597308
0.040734358 0.012005477 0.193 12873585
0.041641936 0.012005477 0.193 12611440
0.04254951 0.012005477 0.193 12546163
0.043457083 0.012005477 0.193 13336192
0.044364657 0.012005477 0.193 14128792
0.045506805 0.012067682 0.19400001 4861233
0.046179809 0.012005477 0.193 3683383
0.047087386 0.012005477 0.193 3026223
-0.014569375 0.012110168 0.18100001 7294025
-0.013869813 0.012243982 0.18300001 10055273
-0.013009262 0.012243982 0.18300001 12685194
-0.012148711 0.012243982 0.18300001 11368564
-0.01128816 0.012243982 0.18300001 12419457
-0.010484592 0.01231089 0.18400002 14325658
-0.0096193384 0.01231089 0.18400002 16297908
-0.0087540857 0.01231089 0.18400002 16759229
-0.0078888331 0.01231089 0.18400002 14324634
-0.0070235799 0.01231089 0.18400002 14850205
-0.0061583263 0.01231089 0.18400002 15639719
-0.0052930736 0.01231089 0.18400002 14783640
-0.0044278204 0.01231089 0.18400002 13009798
-0.0035625673 0.01231089 0.18400002 16767451
-0.0026973144 0.01231089 0.18400002 16770793
-0.0018320613 0.01231089 0.18400002 16767198
-0.00096680829 0.01231089 0.18400002 13144473
-0.00010155528 0.01231089 0.18400002 14722994
0.00076784822 0.012377796 0.185 15508910
0.0016378037 0.012377796 0.185 15375264
0.0025077593 0.012377796 0.185 15310754
0.0033777144 0.012377796 0.185 16762058
0.0042706304 0.012444703 0.186 16767964
0.0051452885 0.012444703 0.186 16769250
0.0060199467 0.012444703 0.186 14266806
0.0069316719 0.01251161 0.18700001 14001579
0.0078110327 0.01251161 0.18700001 15116205
0.0086903926 0.01251161 0.18700001 15705769
0.0096209282 0.012578517 0.18800001 15244961
0.010504992 0.012578517 0.18800001 14915996
0.011389053 0.012578517 0.18800001 14193048
0.012273116 0.012578517 0.18800001 16766429
0.01315718 0.012578517 0.18800001 16765141
0.014115931 0.012645424 0.18900001 16768226
0.015004696 0.012645424 0.18900001 12423317
0.015893461 0.012645424 0.18900001 12882069
0.016782226 0.012645424 0.18900001 14392480
0.017670993 0.012645424 0.18900001 14523296
0.018559758 0.012645424 0.18900001 14458273
0.019448522 0.012645424 0.18900001 16432578
0.020444892 0.012712331 0.19000001 16766171
0.02133836 0.012712331 0.19000001 16766693
0.022231828 0.012712331 0.19000001 15584475
0.023125295 0.012712331 0.19000001 13346996
0.024145178 0.012779239 0.19100001 13341341
0.02504335 0.012779239 0.19100001 15443635
0.025941519 0.012779239 0.19100001 16758723
0.02698021 0.012846145 0.192 15770801
0.027883084 0.012846145 0.192 13205651
0.028785953 0.012846145 0.192 10645633
0.029688828 0.012846145 0.192 6236728
0.0305917 0.012846145 0.192 4721174
0.031658608 0.012913052 0.193 5049622
0.032566182 0.012913052 0.193 5247001
0.03347376 0.012913052 0.193 5246485
0.034381334 0.012913052 0.193 5114384
0.035288908 0.012913052 0.193 5376270
0.036196481 0.012913052 0.193 5112839
0.037104059 0.012913052 0.193 6098199
0.038011633 0.012913052 0.193 6887715
0.03891921 0.012913052 0.193 8466999
0.039826784 0.012913052 0.193 9848650
0.040734358 0.012913052 0.193 10900052
0.041641936 0.012913052 0.193 12149865
0.04254951 0.012913052 0.193 11690086
0.043457083 0.012913052 0.193 11757162
0.044364657 0.012913052 0.193 13930900
0.045506805 0.012979959 0.19400001 7030601
0.046179809 0.012913052 0.193 3617588
-0.014569375 0.012961314 0.18100001 7426127
-0.013869813 0.013104534 0.18300001 7819340
-0.013080351 0.013176143 0.18400002 11042166
-0.012215097 0.013176143 0.18400002 11040882
-0.011349845 0.013176143 0.18400002 11565432
-0.010541573 0.013247752 0.185 11827320
-0.0096716173 0.013247752 0.185 12615040
-0.0088016624 0.013247752 0.185 13272200
-0.0079317065 0.013247752 0.185 13272970
-0.0070617511 0.013247752 0.185 14389654
-0.0061917952 0.013247752 0.185 15376547
-0.0053218398 0.013247752 0.185 15442340
-0.0044518844 0.013247752 0.185 15113632
-0.0035819288 0.013247752 0.185 14389909
-0.0027119736 0.013247752 0.185 16763340
-0.0018420181 0.013247752 0.185 15049892
-0.00097206264 0.013247752 0.185 13868448
-0.0001021072 0.013247752 0.185 14920882
0.00077199872 0.013319361 0.186 15970481
0.0016466568 0.013319361 0.186 16231084
0.0025213147 0.013319361 0.186 15771305
0.0033959725 0.013319361 0.186 14389657
0.0042935908 0.01339097 0.18700001 15577783
0.0051729511 0.01339097 0.18700001 16503764
0.006052312 0.01339097 0.18700001 14266036
0.0069316719 0.01339097 0.18700001 13145241
0.007852803 0.013462581 0.18800001 13800858
0.0087368656 0.013462581 0.18800001 14391964
0.0096209282 0.013462581 0.18800001 15574185
0.010504992 0.013462581 0.18800001 15508392
0.011389053 0.013462581 0.18800001 14719646
0.012273116 0.013462581 0.18800001 14128540
0.013227165 0.01353419 0.18900001 13670556
0.014115931 0.01353419 0.18900001 14002864
0.015004696 0.01353419 0.18900001 12883868
0.015893461 0.01353419 0.18900001 14656165
0.016782226 0.01353419 0.18900001 15049894
0.017670993 0.01353419 0.18900001 15247019
0.018559758 0.01353419 0.18900001 13339022
0.019448522 0.01353419 0.18900001 13537173
0.020444892 0.0136058 0.19000001 14394538
0.02133836 0.0136058 0.19000001 16772084
0.022231828 0.0136058 0.19000001 16769262
0.023125295 0.0136058 0.19000001 10977156
0.024145178 0.013677409 0.19100001 14062232
0.02504335 0.013677409 0.19100001 15639726
0.026077338 0.013749017 0.192 16561598
0.02698021 0.013749017 0.192 16762833
0.027883084 0.013749017 0.192 15908812
0.028785953 0.013749017 0.192 16776187
0.029688828 0.013749017 0.192 16774904
0.0305917 0.013749017 0.192 10578031
0.031658608 0.013820628 0.193 10642281
0.032566182 0.013820628 0.193 10181212
0.03347376 0.013820628 0.193 9457489
0.034381334 0.013820628 0.193 9785939
0.035288908 0.013820628 0.193 11100257
0.036196481 0.013820628 0.193 12086379
0.037104059 0.013820628 0.193 15506852
0.038011633 0.013820628 0.193 14979736
0.03891921 0.013820628 0.193 14387849
0.039826784 0.013820628 0.193 14452872
0.040734358 0.013820628 0.193 13071991
0.041641936 0.013820628 0.193 13071737
0.04254951 0.013820628 0.193 13334909
0.043457083 0.013820628 0.193 13730439
0.044364657 0.013820628 0.193 14326171
0.045506805 0.013892237 0.19400001 9597298
0.046179809 0.013820628 0.193 3487025
-0.013945605 0.014041397 0.18400002 7886162
-0.013151439 0.014117707 0.185 10254194
-0.012281483 0.014117707 0.185 10714232
-0.011411528 0.014117707 0.185 10909558
-0.010598554 0.014194019 0.186 12421770
-0.0097238962 0.014194019 0.186 12157569
-0.008849239 0.014194019 0.186 12287356
-0.0079745799 0.014194019 0.186 12549758
-0.0070999227 0.014194019 0.186 12745854
-0.0062252646 0.014194019 0.186 13468807
-0.0053506065 0.014194019 0.186 13337223
-0.0044759484 0.014194019 0.186 13535118
-0.0036012908 0.014194019 0.186 13930646
-0.0027266329 0.014194019 0.186 13930898
-0.001851975 0.014194019 0.186 14195353
-0.00097731699 0.014194019 0.186 12750735
-0.00010265913 0.014194019 0.186 14000034
0.00077614927 0.014270332 0.18700001 13996952
0.0016555098 0.014270332 0.18700001 14258323
0.0025348703 0.014270332 0.18700001 14192530
0.0034142304 0.014270332 0.18700001 14258323
0.0043165511 0.014346643 0.18800001 14064028
0.0052006142 0.014346643 0.18800001 11107457
0.0060846773 0.014346643 0.18800001 12093068
0.0069687399 0.014346643 0.18800001 12749454
0.0078945737 0.014422956 0.18900001 13340305
0.0087833386 0.014422956 0.18900001 13339276
0.0096721034 0.014422956 0.18900001 14324118
0.010560869 0.014422956 0.18900001 14718876
0.011449634 0.014422956 0.18900001 14193302
0.012338399 0.014422956 0.18900001 13470862
0.013227165 0.014422956 0.18900001 13276311
0.014115931 0.014422956 0.18900001 11369857
0.015004696 0.014422956 0.18900001 12947346
0.015893461 0.014422956 0.18900001 13272970
0.016782226 0.014422956 0.18900001 13666958
0.01776449 0.014499268 0.19000001 13271176
0.018657958 0.014499268 0.19000001 12877442
0.019551424 0.014499268 0.19000001 13537425
0.020444892 0.014499268 0.19000001 13013139
0.02133836 0.014499268 0.19000001 11437966
0.022231828 0.014499268 0.19000001 12622240
0.023125295 0.014499268 0.19000001 12617868
0.024145178 0.01457558 0.19100001 15179425
0.02504335 0.01457558 0.19100001 16691639
0.025941519 0.01457558 0.19100001 16760772
0.02698021 0.014651891 0.192 15380404
0.027883084 0.014651891 0.192 16573670
0.028785953 0.014651891 0.192 16777211
0.029688828 0.014651891 0.192 16776185
0.0305917 0.014651891 0.192 14330544
0.031658608 0.014728203 0.193 12483713
0.032566182 0.014728203 0.193 12284535
0.03347376 0.014728203 0.193 11100261
0.034381334 0.014728203 0.193 11298410
0.035288908 0.014728203 0.193 11693936
0.036196481 0.014728203 0.193 16168373
0.037104059 0.014728203 0.193 16628422
0.038011633 0.014728203 0.193 14060183
0.03891921 0.014728203 0.193 12940151
0.039826784 0.014728203 0.193 13926528
0.040734358 0.014728203 0.193 13861507
0.041641936 0.014728203 0.193 13927818
0.04254951 0.014728203 0.193 15572643
0.043457083 0.014728203 0.193 16758200
0.044364657 0.014728203 0.193 16300479
0.045506805 0.014804515 0.19400001 9004909
0.046179809 0.014728203 0.193 3551795
0.047087386 0.014728203 0.193 3224880
-0.014324561 0.015311722 0.18900001 7754576
-0.013293616 0.015149692 0.18700001 9399401
-0.012414256 0.015149692 0.18700001 9794159
-0.011534896 0.015149692 0.18700001 10581878
-0.010655536 0.015149692 0.18700001 10843765
-0.009776175 0.015149692 0.18700001 11369595
-0.0088968156 0.015149692 0.18700001 12090752
-0.0079745799 0.015068678 0.186 13340559
-0.0070999227 0.015068678 0.186 13405839
-0.0062587336 0.015149692 0.18700001 13009544
-0.0053793732 0.015149692 0.18700001 12811395
-0.0045000128 0.015149692 0.18700001 13009546
-0.0036206525 0.015149692 0.18700001 13536401
-0.0027412924 0.015149692 0.18700001 13537425
-0.0018619319 0.015149692 0.18700001 13999519
-0.00098257139 0.015149692 0.18700001 11698562
-0.00010321107 0.015149692 0.18700001 12552588
0.00078029983 0.015230707 0.18800001 12879241
0.0016643627 0.015230707 0.18800001 13404556
0.0025484257 0.015230707 0.18800001 13733519
0.0034324883 0.015230707 0.18800001 14128277
0.0043395115 0.015311722 0.18900001 13603477
0.0052282768 0.015311722 0.18900001 11960197
0.0061170426 0.015311722 0.18900001 12552334
0.0070058075 0.015311722 0.18900001 12551821
0.0079363436 0.015392736 0.19000001 13076622
0.0088298116 0.015392736 0.19000001 13075852
0.0097232787 0.015392736 0.19000001 13666706
0.010616747 0.015392736 0.19000001 13995671
0.011449634 0.015311722 0.18900001 13601683
0.012338399 0.015311722 0.18900001 13209235
0.013227165 0.015311722 0.18900001 10974587
0.014190618 0.015392736 0.19000001 11829381
0.015084086 0.015392736 0.19000001 12419205
0.015977552 0.015392736 0.19000001 12483715
0.016871022 0.015392736 0.19000001 12746374
0.01776449 0.015392736 0.19000001 12680579
0.018657958 0.015392736 0.19000001 13272716
0.019551424 0.015392736 0.19000001 12024959
0.020444892 0.015392736 0.19000001 11830412
0.021450669 0.01547375 0.19100001 9990261
0.022348838 0.01547375 0.19100001 13145754
0.023247007 0.01547375 0.19100001 13339792
0.024145178 0.01547375 0.19100001 13601165
0.02504335 0.01547375 0.19100001 15244709
0.025941519 0.01547375 0.19100001 16032942
0.02698021 0.015554764 0.192 15771312
0.027883084 0.015554764 0.192 16772336
0.028785953 0.015554764 0.192 16777211
0.029688828 0.015554764 0.192 16776441
0.0305917 0.015554764 0.192 16766169
0.031658608 0.015635779 0.193 15179945
0.032566182 0.015635779 0.193 15705514
0.03347376 0.015635779 0.193 15639976
0.034381334 0.015635779 0.193 13141895
0.035288908 0.015635779 0.193 16764365
0.036196481 0.015635779 0.193 16435918
0.037104059 0.015635779 0.193 16774134
0.038011633 0.015635779 0.193 16773365
0.03891921 0.015635779 0.193 15243939
0.039826784 0.015635779 0.193 15308699
0.040734358 0.015635779 0.193 16361641
0.041641936 0.015635779 0.193 15638434
0.04254951 0.015635779 0.193 16296877
0.043457083 0.015635779 0.193 16758200
0.044364657 0.015635779 0.193 16103873
0.045506805 0.015716793 0.19400001 5715521
0.046179809 0.015635779 0.193 3682100
0.047087386 0.015635779 0.193 3552048
-0.014476144 0.016371921 0.19100001 8346711
-0.013364706 0.01611477 0.18800001 9333606
-0.012414256 0.016029052 0.18700001 9990509
-0.01159658 0.01611477 0.18800001 11041914
-0.010712517 0.01611477 0.18800001 11107707
-0.0098284548 0.01611477 0.18800001 11303802
-0.0089443922 0.01611477 0.18800001 12420487
-0.0080174543 0.016029052 0.18700001 12814215
-0.0071380944 0.016029052 0.18700001 13603731
-0.006292203 0.01611477 0.18800001 13669011
-0.0054081399 0.01611477 0.18800001 13208206
-0.0045240773 0.01611477 0.18800001 12550276
-0.0036400142 0.01611477 0.18800001 12813448
-0.0027559516 0.01611477 0.18800001 12748684
-0.0018718888 0.01611477 0.18800001 11172480
-0.0009878258 0.01611477 0.18800001 12093066
-0.000103763 0.01611477 0.18800001 12354696
0.00078445039 0.016200487 0.18900001 12550278
0.0016732158 0.016200487 0.18900001 12550276
0.0025619811 0.016200487 0.18900001 13470862
0.0034507464 0.016200487 0.18900001 13865620
0.0043624719 0.016286204 0.19000001 13076620
0.0052559399 0.016286204 0.19000001 12945034
0.0061494079 0.016286204 0.19000001 13076622
0.0070428755 0.016286204 0.19000001 13537173
0.0079781143 0.016371921 0.19100001 13207438
0.0088762837 0.016371921 0.19100001 13404817
0.0097744539 0.016371921 0.19100001 13141645
0.010616747 0.016286204 0.19000001 13272718
0.011510214 0.016286204 0.19000001 13141645
0.012403682 0.016286204 0.19000001 12419205
0.01329715 0.016286204 0.19000001 10709871
0.014265305 0.016371921 0.19100001 12156033
0.015163477 0.016371921 0.19100001 12484483
0.016061645 0.016371921 0.19100001 12945034
0.016871022 0.016286204 0.19000001 12747655
0.01776449 0.016286204 0.19000001 13010827
0.018756157 0.016371921 0.19100001 12813961
0.019654326 0.016371921 0.19100001 12617614
0.020552497 0.016371921 0.19100001 9987692
0.021450669 0.016371921 0.19100001 11303554
0.022348838 0.016371921 0.19100001 12880016
0.023247007 0.016371921 0.19100001 13011342
0.024145178 0.016371921 0.19100001 13865366
0.02504335 0.016371921 0.19100001 14652829
0.025941519 0.016371921 0.19100001 16165041
0.02698021 0.016457636 0.192 16494006
0.027883084 0.016457636 0.192 16761034
0.028785953 0.016457636 0.192 16765656
0.029688828 0.016457636 0.192 16767198
0.0305917 0.016457636 0.192 15974344
0.031658608 0.016543353 0.193 15313082
0.032566182 0.016543353 0.193 14324382
0.03347376 0.016543353 0.193 15968943
0.034381334 0.016543353 0.193 13930646
0.035288908 0.016543353 0.193 16366531
0.036196481 0.016543353 0.193 16767968
0.037104059 0.016543353 0.193 16773360
0.038011633 0.016543353 0.193 16772593
0.03891921 0.016543353 0.193 16362420
0.039826784 0.016543353 0.193 16559538
0.040734358 0.016543353 0.193 16493745
0.041641936 0.016543353 0.193 16757687
0.04254951 0.016543353 0.193 16626871
0.043457083 0.016543353 0.193 15642799
0.044364657 0.016543353 0.193 11568519
0.045506805 0.01662907 0.19400001 3944759
0.046179809 0.016543353 0.193 4345938
0.047087386 0.016543353 0.193 5530982
-0.014703517 0.017541347 0.19400001 7163722
-0.013506884 0.017179672 0.19000001 8807780
-0.012480643 0.016998831 0.18800001 9793132
-0.011658264 0.017089251 0.18900001 10780027
-0.010769499 0.017089251 0.18900001 11108220
-0.0098807337 0.017089251 0.18900001 11632767
-0.0089919688 0.017089251 0.18900001 11369082
-0.0080603287 0.016998831 0.18800001 12354694
-0.0071762661 0.016998831 0.18800001 12748168
-0.0063256719 0.017089251 0.18900001 13669270
-0.0054369066 0.017089251 0.18900001 13801110
-0.0045481413 0.017089251 0.18900001 13866390
-0.0036593762 0.017089251 0.18900001 13603477
-0.0027706109 0.017089251 0.18900001 12420750
-0.0018818455 0.017089251 0.18900001 11040380
-0.0009930802 0.017089251 0.18900001 12815506
-0.00010431492 0.017089251 0.18900001 12748170
0.00078860088 0.017179672 0.19000001 12418692
0.0016820688 0.017179672 0.19000001 12484485
0.0025755367 0.017179672 0.19000001 12549508
0.0034690043 0.017179672 0.19000001 12746374
0.0043854327 0.01727009 0.19100001 13075337
0.005283603 0.01727009 0.19100001 13602194
0.0061817733 0.01727009 0.19100001 13339022
0.0070799435 0.01727009 0.19100001 13536401
0.0079781143 0.01727009 0.19100001 13339022
0.0088762837 0.01727009 0.19100001 13931159
0.0097744539 0.01727009 0.19100001 14127773
0.010672624 0.01727009 0.19100001 12746120
0.011570795 0.01727009 0.19100001 13470610
0.012468965 0.01727009 0.19100001 13669272
0.013367135 0.01727009 0.19100001 13997724
0.014339992 0.017360508 0.192 13010829
0.015242865 0.017360508 0.192 12681864
0.016145736 0.017360508 0.192 13734552
0.016959816 0.01727009 0.19100001 13735065
0.017857987 0.01727009 0.19100001 13077649
0.018756157 0.01727009 0.19100001 12814477
0.019757228 0.017360508 0.192 13867935
0.020660101 0.017360508 0.192 13208981
0.021562973 0.017360508 0.192 12354444
0.022465847 0.017360508 0.192 12420237
0.023368718 0.017360508 0.192 12091785
0.024271591 0.017360508 0.192 11170683
0.025174465 0.017360508 0.192 13340053
0.026077338 0.017360508 0.192 14325404
0.02698021 0.017360508 0.192 16429240
0.027883084 0.017360508 0.192 15244966
0.028785953 0.017360508 0.192 16298424
0.029688828 0.017360508 0.192 15773365
0.0305917 0.017360508 0.192 16770287
0.031658608 0.017450929 0.193 16764895
0.032566182 0.017450929 0.193 15972037
0.03347376 0.017450929 0.193 16563397
0.034381334 0.017450929 0.193 16762830
0.035288908 0.017450929 0.193 13994901
0.036196481 0.017450929 0.193 16760517
0.037104059 0.017450929 0.193 16770281
0.038011633 0.017450929 0.193 15309986
0.03891921 0.017450929 0.193 16558768
0.039826784 0.017450929 0.193 16427952
0.040734358 0.017450929 0.193 16296879
0.041641936 0.017450929 0.193 16430262
0.04254951 0.017450929 0.193 15906748
0.043457083 0.017450929 0.193 9988206
0.044364657 0.017450929 0.193 8346461
0.045272235 0.017450929 0.193 6378837
-0.012480643 0.017882895 0.18800001 9135975
-0.011719949 0.01807314 0.19000001 10385528
-0.010826481 0.01807314 0.19000001 10582648
-0.0099330125 0.01807314 0.19000001 10976121
-0.0090395454 0.01807314 0.19000001 11501181
-0.008103203 0.017978016 0.18900001 12026242
-0.0072144377 0.017978016 0.18900001 12024959
-0.0063591413 0.01807314 0.19000001 12945547
-0.0054656737 0.01807314 0.19000001 13011340
-0.0045722057 0.01807314 0.19000001 13274512
-0.0036787379 0.01807314 0.19000001 13142926
-0.0027852703 0.01807314 0.19000001 12222086
-0.0018918024 0.01807314 0.19000001 11761537
-0.00099833461 0.01807314 0.19000001 11695228
-0.00010486686 0.01807314 0.19000001 11891578
0.00079275144 0.018168261 0.19100001 12088957
0.0016909218 0.018168261 0.19100001 12483715
0.0025890921 0.018168261 0.19100001 12680579
0.0034872622 0.018168261 0.19100001 13206407
0.0044083926 0.018263381 0.192 13666958
0.0053112651 0.018263381 0.192 13798544
0.0062141381 0.018263381 0.192 14128025
0.0071170107 0.018263381 0.192 14391197
0.0080198841 0.018263381 0.192 13996439
0.0089227557 0.018263381 0.192 13404304
0.0098256283 0.018263381 0.192 12022397
0.010728502 0.018263381 0.192 12153983
0.011631373 0.018263381 0.192 12549254
0.012534246 0.018263381 0.192 13339540
0.013437119 0.018263381 0.192 13668505
0.01441468 0.018358504 0.193 13865368
0.015322255 0.018358504 0.193 12286852
0.016229829 0.018358504 0.193 12221572
0.01704861 0.018263381 0.192 13209751
0.017951483 0.018263381 0.192 13144471
0.018854355 0.018263381 0.192 13144725
0.019757228 0.018263381 0.192 13341850
0.020660101 0.018263381 0.192 12156293
0.021562973 0.018263381 0.192 12157063
0.022465847 0.018263381 0.192 12551823
0.023368718 0.018263381 0.192 12222858
0.024271591 0.018263381 0.192 11697027
0.025174465 0.018263381 0.192 11828613
0.026077338 0.018263381 0.192 11893123
0.02698021 0.018263381 0.192 12221313
0.027883084 0.018263381 0.192 13733267
0.028785953 0.018263381 0.192 14128025
0.029688828 0.018263381 0.192 13535120
0.0305917 0.018263381 0.192 13601942
0.031658608 0.018358504 0.193 14918574
0.032566182 0.018358504 0.193 15445181
0.03347376 0.018358504 0.193 15511224
0.034381334 0.018358504 0.193 16762572
0.035288908 0.018358504 0.193 14456220
0.036196481 0.018358504 0.193 14521240
0.037104059 0.018358504 0.193 14652826
0.038011633 0.018358504 0.193 15310756
0.03891921 0.018358504 0.193 15837353
0.039826784 0.018358504 0.193 14983584
0.040734358 0.018358504 0.193 13144210
0.041641936 0.018358504 0.193 7092289
-0.012746188 0.019166255 0.192 9137258
-0.011781632 0.019066432 0.19100001 10189433
-0.010940443 0.019166255 0.192 10188663
-0.0099852914 0.019066432 0.19100001 10451321
-0.009087122 0.019066432 0.19100001 11239041
-0.0081889508 0.019066432 0.19100001 11961734
-0.007290781 0.019066432 0.19100001 12355207
-0.0063926107 0.019066432 0.19100001 12353924
-0.0054944404 0.019066432 0.19100001 12418690
-0.0045962702 0.019066432 0.19100001 12352897
-0.0036980996 0.019066432 0.19100001 12747655
-0.0027999296 0.019066432 0.19100001 12550276
-0.0019117161 0.019166255 0.192 12418438
-0.0010088434 0.019166255 0.192 12352129
-0.00010597071 0.019166255 0.192 13009546
0.00079690194 0.019166255 0.192 14325404
0.0016997746 0.019166255 0.192 14457503
0.0026026473 0.019166255 0.192 13602194
0.0035055198 0.019166255 0.192 13864853
0.004431353 0.019266078 0.193 13733521
0.0053389282 0.019266078 0.193 13337993
0.0062465039 0.019266078 0.193 13337993
0.0071540787 0.019266078 0.193 13206923
0.0080616539 0.019266078 0.193 12943753
0.0089692287 0.019266078 0.193 12746120
0.0098768035 0.019266078 0.193 12285569
0.010784379 0.019266078 0.193 12482948
0.011691954 0.019266078 0.193 12417155
0.012599529 0.019266078 0.193 13272464
0.013507104 0.019266078 0.193 14391458
0.014489368 0.019365903 0.19400001 12154750
0.015401646 0.019365903 0.19400001 11958141
0.016313922 0.019365903 0.19400001 12418692
0.017137405 0.019266078 0.193 12682123
0.01804498 0.019266078 0.193 12156293
0.018952556 0.019266078 0.193 11565441
0.01986013 0.019266078 0.193 12486543
0.020767706 0.019266078 0.193 11960199
0.021675281 0.019266078 0.193 11893891
0.022582857 0.019266078 0.193 12682637
0.023490431 0.019266078 0.193 12682891
0.024398006 0.019266078 0.193 12486282
0.025305582 0.019266078 0.193 12354955
0.026213158 0.019266078 0.193 11959686
0.027120734 0.019266078 0.193 12485258
0.028028307 0.019266078 0.193 12287365
0.028935881 0.019266078 0.193 12023934
0.029843457 0.019266078 0.193 12483715
0.030751033 0.019266078 0.193 13141645
0.031658608 0.019266078 0.193 13010059
0.032566182 0.019266078 0.193 12484485
0.03347376 0.019266078 0.193 12747657
0.034381334 0.019266078 0.193 13076622
0.035288908 0.019266078 0.193 13339792
0.036196481 0.019266078 0.193 13208206
0.037104059 0.019266078 0.193 12681862
0.038011633 0.019266078 0.193 12355207
0.03891921 0.019266078 0.193 13410464
0.039826784 0.019266078 0.193 8149600
-0.012945347 0.020382708 0.19500001 9926261
-0.011966684 0.02027818 0.19400001 10057847
-0.010997425 0.020173654 0.193 10123640
-0.010089849 0.020173654 0.193 10254456
-0.0091346977 0.020069126 0.192 10846079
-0.0082318243 0.020069126 0.192 11042175
-0.0073289522 0.020069126 0.192 11567236
-0.0064595486 0.020173654 0.193 12158600
-0.0055519734 0.020173654 0.193 12815760
-0.0046443981 0.020173654 0.193 12617866
-0.0037368231 0.020173654 0.193 12880268
-0.0028292481 0.020173654 0.193 12945034
-0.001921673 0.020173654 0.193 12484737
-0.0010140978 0.020173654 0.193 12484483
-0.00010652265 0.020173654 0.193 13206925
0.00080105243 0.020173654 0.193 13930646
0.0017086277 0.020173654 0.193 13799573
0.0026297583 0.02027818 0.19400001 13667987
0.0035420358 0.02027818 0.19400001 13537171
0.0044543133 0.02027818 0.19400001 12484483
0.0053665913 0.02027818 0.19400001 13010057
0.0062788692 0.02027818 0.19400001 12944264
0.0071911463 0.02027818 0.19400001 13141643
0.0081034247 0.02027818 0.19400001 13339022
0.0090157017 0.02027818 0.19400001 12615301
0.0099279787 0.02027818 0.19400001 12811397
0.010840257 0.02027818 0.19400001 12811397
0.011752534 0.02027818 0.19400001 12746374
0.012664812 0.02027818 0.19400001 13206925
0.01357709 0.02027818 0.19400001 13404304
0.014564055 0.020382708 0.19500001 12615301
0.015481035 0.020382708 0.19500001 12023934
0.016398015 0.020382708 0.19500001 11958141
0.017226201 0.02027818 0.19400001 12089727
0.018138478 0.02027818 0.19400001 11695996
0.019050756 0.02027818 0.19400001 11697027
0.019963032 0.02027818 0.19400001 11697027
0.020875311 0.02027818 0.19400001 12025992
0.021787588 0.02027818 0.19400001 12222856
0.022699866 0.02027818 0.19400001 12485512
0.023612143 0.02027818 0.19400001 12879756
0.02452442 0.02027818 0.19400001 13077649
0.025436699 0.02027818 0.19400001 12815506
0.026348976 0.02027818 0.19400001 12946579
0.027261255 0.02027818 0.19400001 12616330
0.028173532 0.02027818 0.19400001 12024193
0.029085808 0.02027818 0.19400001 12221313
0.029998086 0.02027818 0.19400001 12550278
0.030910363 0.02027818 0.19400001 12945034
0.03182264 0.02027818 0.19400001 13076620
0.032734919 0.02027818 0.19400001 12748168
0.033647198 0.02027818 0.19400001 12682377
0.034381334 0.020173654 0.193 13472407
0.035288908 0.020173654 0.193 13012626
0.036196481 0.020173654 0.193 12422285
0.037104059 0.020173654 0.193 12753565
0.03781468 0.020069126 0.192 8085090
0.03891921 0.020173654 0.193 4073776
-0.014431039 0.02217352 0.20300001 8744553
-0.013144507 0.021627376 0.19800001 9269616
-0.012151736 0.021518147 0.19700001 9532016
-0.011111388 0.021299688 0.19500001 9992567
-0.010194408 0.021299688 0.19500001 9926515
-0.009229851 0.021190459 0.19400001 9794929
-0.008317573 0.021190459 0.19400001 9925231
-0.007405296 0.021190459 0.19400001 10056304
-0.006493018 0.021190459 0.19400001 10777722
-0.00558074 0.021190459 0.19400001 12224141
-0.0046684626 0.021190459 0.19400001 12355207
-0.0037561848 0.021190459 0.19400001 12223108
-0.0028439073 0.021190459 0.19400001 12748422
-0.0019316298 0.021190459 0.19400001 13340046
-0.0010193522 0.021190459 0.19400001 13076874
-0.00010707458 0.021190459 0.19400001 12879495
0.00080520299 0.021190459 0.19400001 13339022
0.0017263338 0.021299688 0.19500001 13536401
0.0026433137 0.021299688 0.19500001 12484485
0.0035602937 0.021299688 0.19500001 12681864
0.0044772737 0.021299688 0.19500001 12287619
0.0053942539 0.021299688 0.19500001 12419205
0.0063112346 0.021299688 0.19500001 12024447
0.0072282143 0.021299688 0.19500001 11958139
0.0081451945 0.021299688 0.19500001 12614786
0.0090621747 0.021299688 0.19500001 13996439
0.009979154 0.021299688 0.19500001 13140614
0.010896134 0.021299688 0.19500001 13009798
0.011813114 0.021299688 0.19500001 12417409
0.012730094 0.021299688 0.19500001 12088190
0.013647075 0.021299688 0.19500001 13075852
0.014638742 0.021408917 0.19600001 13470608
0.015560426 0.021408917 0.19600001 12023932
0.016482107 0.021408917 0.19600001 12352897
0.017314995 0.021299688 0.19500001 12024961
0.018231975 0.021299688 0.19500001 11762559
0.019148955 0.021299688 0.19500001 11894404
0.020065935 0.021299688 0.19500001 11894404
0.020982916 0.021299688 0.19500001 12289162
0.021899896 0.021299688 0.19500001 11960197
0.022816876 0.021299688 0.19500001 12880016
0.023733856 0.021299688 0.19500001 13077395
0.02452442 0.021190459 0.19400001 13340821
0.025567817 0.021299688 0.19500001 12683920
0.026348976 0.021190459 0.19400001 12684692
0.027261255 0.021190459 0.19400001 12552334
0.028173532 0.021190459 0.19400001 11893121
0.029085808 0.021190459 0.19400001 11958654
0.029998086 0.021190459 0.19400001 12353410
0.030910363 0.021190459 0.19400001 13340305
0.03182264 0.021190459 0.19400001 12617096
0.032734919 0.021190459 0.19400001 11630719
0.033647198 0.021190459 0.19400001 11829383
0.034559477 0.021190459 0.19400001 12028559
0.035288908 0.021081228 0.193 12754078
0.036196481 0.021081228 0.193 9862016
-0.015991969 0.024039574 0.21100001 6377036
-0.014644306 0.023469917 0.20600002 9074034
-0.013343666 0.022900257 0.20100001 9008241
-0.012275103 0.022672396 0.19900002 8941932
-0.011225351 0.022444531 0.19700001 8612197
-0.010298965 0.022444531 0.19700001 9005926
-0.0093250042 0.022330599 0.19600001 9729136
-0.0083604474 0.022216668 0.19500001 9727852
-0.0074434676 0.022216668 0.19500001 10056304
-0.0065599564 0.022330599 0.19600001 10252659
-0.0056382739 0.022330599 0.19600001 11830410
-0.004716591 0.022330599 0.19600001 11895941
-0.0037755468 0.022216668 0.19500001 11698047
-0.0028585668 0.022216668 0.19500001 12024959
-0.0019415867 0.022216668 0.19500001 12879754
-0.0010298609 0.022330599 0.19600001 12287104
-0.00010817844 0.022330599 0.19600001 12418690
0.0008135041 0.022330599 0.19600001 12353410
0.0017351868 0.022330599 0.19600001 12287619
0.0026568694 0.022330599 0.19600001 12156033
0.0035785518 0.022330599 0.19600001 11432310
0.0045002345 0.022330599 0.19600001 11695482
0.005421917 0.022330599 0.19600001 11827066
0.0063435999 0.022330599 0.19600001 12353410
0.0072652819 0.022330599 0.19600001 12418690
0.0081869652 0.022330599 0.19600001 12549506
0.0091086468 0.022330599 0.19600001 13536403
0.010030329 0.022330599 0.19600001 13339024
0.010952013 0.022330599 0.19600001 13075850
0.011873694 0.022330599 0.19600001 12681094
0.012795377 0.022330599 0.19600001 11891578
0.01371706 0.022330599 0.19600001 12878989
0.01471343 0.022444531 0.19700001 13340307
0.015639815 0.022444531 0.19700001 13142928
0.0165662 0.022444531 0.19700001 12813963
0.017403791 0.022330599 0.19600001 13210005
0.018325472 0.022330599 0.19600001 13144725
0.019247156 0.022330599 0.19600001 12815760
0.020168837 0.022330599 0.19600001 12157830
0.021090521 0.022330599 0.19600001 11499646
0.022012204 0.022330599 0.19600001 11893891
0.022933885 0.022330599 0.19600001 12617614
0.023733856 0.022216668 0.19500001 13209235
0.024650836 0.022216668 0.19500001 13210005
0.025567817 0.022216668 0.19500001 11895174
0.026348976 0.022102736 0.19400001 12751512
0.027261255 0.022102736 0.19400001 11895174
0.028173532 0.022102736 0.19400001 12157830
0.029085808 0.022102736 0.19400001 12289416
0.029998086 0.022102736 0.19400001 12354694
0.030910363 0.022102736 0.19400001 12421000
0.03182264 0.022102736 0.19400001 12356752
0.032734919 0.022102736 0.19400001 11700877
0.033647198 0.022102736 0.19400001 11438734
0.034559477 0.022102736 0.19400001 6506320
-0.015991969 0.025031794 0.21100001 5721934
-0.014857572 0.024794526 0.20900001 6180173
-0.013410052 0.023964087 0.20200001 8942448
-0.012336787 0.023726819 0.2 8810346
-0.011339314 0.023608185 0.19900002 8809830
-0.010351244 0.023489552 0.19800001 8809576
-0.0093250042 0.023252282 0.19600001 9268844
-0.0084033217 0.023252282 0.19600001 8938850
-0.0074816393 0.023252282 0.19600001 9332581
-0.0066268947 0.023489552 0.19800001 9595753
-0.0056958073 0.023489552 0.19800001 9989741
-0.0047647199 0.023489552 0.19800001 10778744
-0.0038142703 0.023370918 0.19700001 11172732
-0.0028878856 0.023370918 0.19700001 11434877
-0.0019615004 0.023370918 0.19700001 11894658
-0.0010403697 0.023489552 0.19800001 11960451
-0.00010928231 0.023489552 0.19800001 12025729
0.00082180515 0.023489552 0.19800001 12157315
0.0017528927 0.023489552 0.19800001 11894658
0.0026839804 0.023489552 0.19800001 11105142
0.0036150676 0.023489552 0.19800001 11499387
0.0045461552 0.023489552 0.19800001 12223110
0.0054772426 0.023489552 0.19800001 12223110
0.0064083305 0.023489552 0.19800001 12617098
0.0073394175 0.023489552 0.19800001 11893373
0.0082705058 0.023489552 0.19800001 11892859
0.0092015928 0.023489552 0.19800001 11958652
0.01013268 0.023489552 0.19800001 11563383
0.01100789 0.023370918 0.19700001 11563129
0.011934275 0.023370918 0.19700001 13010575
0.01286066 0.023370918 0.19700001 13141391
0.013787045 0.023370918 0.19700001 11365750
0.014788118 0.023489552 0.19800001 12024447
0.015719205 0.023489552 0.19800001 12813963
0.016650293 0.023489552 0.19800001 12616584
0.017492585 0.023370918 0.19700001 12024961
0.01841897 0.023370918 0.19700001 12091524
0.019345356 0.023370918 0.19700001 11630973
0.020271739 0.023370918 0.19700001 11697279
0.021198126 0.023370918 0.19700001 11894145
0.02212451 0.023370918 0.19700001 12025477
0.022933885 0.023252282 0.19600001 11762559
0.023855567 0.023252282 0.19600001 11894145
0.024650836 0.023133649 0.19500001 11894145
0.025567817 0.023133649 0.19500001 12158346
0.026348976 0.023015015 0.19400001 12883868
0.027261255 0.023015015 0.19400001 11830410
0.028173532 0.023015015 0.19400001 11698308
0.029235736 0.023133649 0.19500001 12093066
0.030152716 0.023133649 0.19500001 11962764
0.031069696 0.023133649 0.19500001 12227223
0.031986676 0.023133649 0.19500001 8151398
0.032903656 0.023133649 0.19500001 4862779
0.033647198 0.023015015 0.19400001 4405308
-0.01499975 0.026024012 0.21100001 5131599
-0.013808371 0.025654003 0.208 5457735
-0.011681203 0.025283994 0.20500001 9402997
-0.01061264 0.02503732 0.20300001 8152670
-0.0096580405 0.02503732 0.20300001 8020062
-0.0076724971 0.024790647 0.20100001 9399401
-0.006727302 0.024790647 0.20100001 9727852
-0.0057533402 0.02466731 0.2 9727852
-0.0048128478 0.02466731 0.2 9924718
-0.0038529939 0.024543975 0.19900002 10121327
-0.0029172043 0.024543975 0.19900002 10712951
-0.0019814142 0.024543975 0.19900002 10910076
-0.0010456241 0.024543975 0.19900002 11567236
-0.00010983424 0.024543975 0.19900002 11567236
0.00082595571 0.024543975 0.19900002 12158859
0.0017617458 0.024543975 0.19900002 11632515
0.0026975358 0.024543975 0.19900002 11698049
0.0036333255 0.024543975 0.19900002 12289416
0.0045691156 0.024543975 0.19900002 12421002
0.0055049057 0.024543975 0.19900002 11960451
0.0064406958 0.024543975 0.19900002 12157317
0.0073764855 0.024543975 0.19900002 11959936
0.0083122756 0.024543975 0.19900002 11959936
0.0092480658 0.024543975 0.19900002 11762559
0.010183855 0.024543975 0.19900002 11893891
0.011119645 0.024543975 0.19900002 11630973
0.012055435 0.024543975 0.19900002 12156547
0.012991224 0.024543975 0.19900002 12485258
0.013927015 0.024543975 0.19900002 12485258
0.014862806 0.024543975 0.19900002 12616844
0.015798597 0.024543975 0.19900002 12288133
0.016734384 0.024543975 0.19900002 12222340
0.017670175 0.024543975 0.19900002 12156547
0.018605966 0.024543975 0.19900002 12222340
0.019443557 0.024420638 0.19800001 12156547
0.020374643 0.024420638 0.19800001 11894145
0.021305731 0.024420638 0.19800001 11960451
0.02212451 0.024297301 0.19700001 11499900
0.023050897 0.024297301 0.19700001 11961221
0.02397728 0.024297301 0.19700001 12355979
0.02477725 0.024173964 0.19600001 12093320
0.025567817 0.024050627 0.19500001 11896971
0.026348976 0.02392729 0.19400001 12358555
0.027261255 0.02392729 0.19400001 11306380
0.028173532 0.02392729 0.19400001 10911876
0.029235736 0.024050627 0.19500001 10584454
0.030152716 0.024050627 0.19500001 7164250
0.031069696 0.024050627 0.19500001 4798271
0.031986676 0.024050627 0.19500001 4340798
0.032903656 0.024050627 0.19500001 4144702
-0.01499975 0.02701623 0.21100001 4672845
-0.01400753 0.02701623 0.21100001 4803661
-0.013015311 0.02701623 0.21100001 5130314
-0.01196611 0.026888192 0.21000001 5719106
-0.010978593 0.026888192 0.21000001 7099730
-0.0099434992 0.026760152 0.20900001 7822681
-0.0089178104 0.026632113 0.208 8414305
-0.0078633558 0.026376037 0.20600002 8544092
-0.0068277097 0.026119959 0.20400001 8938850
-0.0058396407 0.025991919 0.20300001 9464680
-0.0048609762 0.02586388 0.20200001 10385269
-0.0038917174 0.02573584 0.20100001 10451062
-0.0029465226 0.02573584 0.20100001 10385015
-0.0020013277 0.02573584 0.20100001 10450040
-0.001056133 0.02573584 0.20100001 10252661
-0.0001109381 0.02573584 0.20100001 10515320
0.0008342567 0.02573584 0.20100001 10581113
0.0017794516 0.02573584 0.20100001 11172480
0.0027246466 0.02573584 0.20100001 10974585
0.0036698412 0.02573584 0.20100001 10974839
0.0046150358 0.02573584 0.20100001 11105912
0.0055602309 0.02573584 0.20100001 11040119
0.006505426 0.02573584 0.20100001 11040119
0.0074506206 0.02573584 0.20100001 11040117
0.0083958162 0.02573584 0.20100001 11369082
0.0093410108 0.02573584 0.20100001 10908533
0.010286205 0.02573584 0.20100001 10973556
0.0112314 0.02573584 0.20100001 12157830
0.012116014 0.0256078 0.2 12486795
0.013056506 0.0256078 0.2 11763588
0.013996999 0.0256078 0.2 11960967
0.014937492 0.0256078 0.2 11960969
0.015877984 0.0256078 0.2 11895174
0.016818477 0.0256078 0.2 12026760
0.017758969 0.0256078 0.2 11697795
0.018699462 0.0256078 0.2 11500416
0.019541755 0.025479764 0.19900002 11040119
0.020477545 0.025479764 0.19900002 10908533
0.021413336 0.025479764 0.19900002 10842740
0.022236818 0.025351724 0.19800001 10514288
0.023167906 0.025351724 0.19800001 11238271
0.02397728 0.025223685 0.19700001 11897225
0.02477725 0.025095645 0.19600001 11503496
0.025567817 0.024967607 0.19500001 9925493
0.026348976 0.024839567 0.19400001 9335159
0.027261255 0.024839567 0.19400001 9467005
0.028173532 0.024839567 0.19400001 6311508
0.029235736 0.024967607 0.19500001 4931652
0.030461974 0.025223685 0.19700001 4669763
0.031388361 0.025223685 0.19700001 4472899
0.032314748 0.025223685 0.19700001 4210754
-0.012891943 0.027742967 0.20900001 4408903
-0.01196611 0.027875708 0.21000001 4407874
-0.010978593 0.027875708 0.21000001 5918800
-0.0099910758 0.027875708 0.21000001 5720389
-0.0089606848 0.027742967 0.20900001 6771281
-0.007901527 0.027477486 0.20700002 6967376
-0.0068946481 0.027344745 0.20600002 7164240
-0.0058971741 0.027212001 0.20500001 9005161
-0.0049091051 0.02707926 0.20400001 9136229
-0.0039304411 0.026946519 0.20300001 8873057
-0.0029758413 0.026946519 0.20300001 9267047
-0.0020212415 0.026946519 0.20300001 9069668
-0.0010666418 0.026946519 0.20300001 8608606
-0.00011149003 0.026813777 0.20200001 9003364
0.00083840726 0.026813777 0.20200001 9199973
0.0017883047 0.026813777 0.20200001 9594218
