# .PCD v0.7 - Point Cloud Data file format
VERSION 0.7
FIELDS x y z rgb
SIZE 4 4 4 4
TYPE F F F U
COUNT 1 1 1 1
WIDTH 1079
HEIGHT 1
VIEWPOINT 0 0 0 1 0 0 0
POINTS 1079
DATA ascii
0.016207179 0.0063553471 0.21700001 11759738
0.017227614 0.0063553471 0.21700001 11035502
0.018248048 0.0063553471 0.21700001 10049122
0.019268481 0.0063553471 0.21700001 16762839
0.020288916 0.0063553471 0.21700001 16771065
0.021309352 0.0063553471 0.21700001 15189204
0.022329783 0.0063553471 0.21700001 12621478
0.023350218 0.0063553471 0.21700001 13011092
0.024370654 0.0063553471 0.21700001 14521761
0.025391087 0.0063553471 0.21700001 15178921
0.02641152 0.0063553471 0.21700001 13140112
0.027431956 0.0063553471 0.21700001 11629699
0.028452391 0.0063553471 0.21700001 8933988
0.029472824 0.0063553471 0.21700001 6495535
0.030493259 0.0063553471 0.21700001 5968153
0.031513695 0.0063553471 0.21700001 6100761
0.032534126 0.0063553471 0.21700001 5904665
0.033554561 0.0063553471 0.21700001 5576218
0.034574997 0.0063553471 0.21700001 5970726
0.035595428 0.0063553471 0.21700001 9785948
0.036615863 0.0063553471 0.21700001 16761293
0.037636299 0.0063553471 0.21700001 12284535
0.038656734 0.0063553471 0.21700001 14584976
0.039677165 0.0063553471 0.21700001 13729669
0.040697601 0.0063553471 0.21700001 12677753
0.041718036 0.0063553471 0.21700001 12940671
0.042738467 0.0063553471 0.21700001 14980254
0.043758903 0.0063553471 0.21700001 16033455
0.044779338 0.0063553471 0.21700001 16758976
0.045799773 0.0063553471 0.21700001 13606823
0.046604447 0.0063260598 0.21600001 5391691
0.047620174 0.0063260598 0.21600001 4934222
-0.015355194 0.0073417909 0.21600001 13011340
-0.014405848 0.007375781 0.21700001 12942204
-0.013385414 0.007375781 0.21700001 13729149
-0.012364981 0.007375781 0.21700001 12873583
-0.011344546 0.007375781 0.21700001 13334136
-0.010324112 0.007375781 0.21700001 13268343
-0.0093036769 0.007375781 0.21700001 12215907
-0.0082832435 0.007375781 0.21700001 11031888
-0.0072628087 0.007375781 0.21700001 10637648
-0.0062423744 0.007375781 0.21700001 11098717
-0.0052219401 0.007375781 0.21700001 10902371
-0.0042015058 0.007375781 0.21700001 9850710
-0.0031810717 0.007375781 0.21700001 9061966
-0.0021606374 0.007375781 0.21700001 12088957
-0.0011402032 0.007375781 0.21700001 10575203
-0.00011976899 0.007375781 0.21700001 10836835
0.00090066524 0.007375781 0.21700001 10244443
0.0019210996 0.007375781 0.21700001 11232631
0.0029415339 0.007375781 0.21700001 13142676
0.0039619678 0.007375781 0.21700001 11697027
0.0049824021 0.007375781 0.21700001 12486543
0.0060028364 0.007375781 0.21700001 12813709
0.0070232712 0.007375781 0.21700001 14455704
0.0080437046 0.007375781 0.21700001 15244963
0.0090641398 0.007375781 0.21700001 14915996
0.010084573 0.007375781 0.21700001 13600911
0.011105007 0.007375781 0.21700001 15248054
0.012125442 0.007375781 0.21700001 16765411
0.013145876 0.007375781 0.21700001 11371924
0.014166309 0.007375781 0.21700001 13015715
0.015186745 0.007375781 0.21700001 14260896
0.016207179 0.007375781 0.21700001 14982818
0.017227614 0.007375781 0.21700001 14456990
0.018248048 0.007375781 0.21700001 13339542
0.019268481 0.007375781 0.21700001 16766687
0.020288916 0.007375781 0.21700001 16637929
0.021309352 0.007375781 0.21700001 15849448
0.022329783 0.007375781 0.21700001 11306131
0.023350218 0.007375781 0.21700001 13144221
0.024370654 0.007375781 0.21700001 16764889
0.025391087 0.007375781 0.21700001 16770546
0.02641152 0.007375781 0.21700001 14661574
0.027431956 0.007375781 0.21700001 16775422
0.028452391 0.007375781 0.21700001 16775934
0.029472824 0.007375781 0.21700001 14262956
0.030493259 0.007375781 0.21700001 10771814
0.031513695 0.007375781 0.21700001 12350328
0.032534126 0.007375781 0.21700001 11759731
0.033554561 0.007375781 0.21700001 10642281
0.034574997 0.007375781 0.21700001 13077397
0.035595428 0.007375781 0.21700001 16040650
0.036615863 0.007375781 0.21700001 16774647
0.037636299 0.007375781 0.21700001 16774133
0.038656734 0.007375781 0.21700001 14849951
0.039677165 0.007375781 0.21700001 14190222
0.040697601 0.007375781 0.21700001 14848152
0.041718036 0.007375781 0.21700001 14387601
0.042738467 0.007375781 0.21700001 16230575
0.043758903 0.007375781 0.21700001 16757178
0.044779338 0.007375781 0.21700001 16497858
0.045588713 0.0073417909 0.21600001 10517116
0.046604447 0.0073417909 0.21600001 5062977
0.047620174 0.0073417909 0.21600001 4736322
-0.015355194 0.008357523 0.21600001 12549506
-0.014405848 0.0083962157 0.21700001 13468550
-0.013385414 0.0083962157 0.21700001 13927816
-0.012364981 0.0083962157 0.21700001 13596284
-0.011344546 0.0083962157 0.21700001 14845322
-0.010324112 0.0083962157 0.21700001 13661564
-0.0093036769 0.0083962157 0.21700001 13464700
-0.0082832435 0.0083962157 0.21700001 12610163
-0.0072628087 0.0083962157 0.21700001 12018799
-0.0062423744 0.0083962157 0.21700001 12415360
-0.0052219401 0.0083962157 0.21700001 14391208
-0.0042015058 0.0083962157 0.21700001 10772330
-0.0031810717 0.0083962157 0.21700001 11430773
-0.0021606374 0.0083962157 0.21700001 13536921
-0.0011402032 0.0083962157 0.21700001 13536401
-0.00011976899 0.0083962157 0.21700001 12876670
0.00090066524 0.0083962157 0.21700001 13666706
0.0019210996 0.0083962157 0.21700001 16763611
0.0029415339 0.0083962157 0.21700001 16768232
0.0039619678 0.0083962157 0.21700001 16766693
0.0049824021 0.0083962157 0.21700001 13868966
0.0060028364 0.0083962157 0.21700001 15116205
0.0070232712 0.0083962157 0.21700001 14982818
0.0080437046 0.0083962157 0.21700001 15179427
0.0090641398 0.0083962157 0.21700001 15835815
0.010084573 0.0083962157 0.21700001 14455195
0.011105007 0.0083962157 0.21700001 16771062
0.012125442 0.0083962157 0.21700001 16770036
0.013145876 0.0083962157 0.21700001 12424612
0.014166309 0.0083962157 0.21700001 13144473
0.015186745 0.0083962157 0.21700001 15706541
0.016207179 0.0083962157 0.21700001 15902893
0.017227614 0.0083962157 0.21700001 14718622
0.018248048 0.0083962157 0.21700001 15969209
0.019268481 0.0083962157 0.21700001 16768485
0.020288916 0.0083962157 0.21700001 16774649
0.021309352 0.0083962157 0.21700001 16770799
0.022329783 0.0083962157 0.21700001 14526898
0.023350218 0.0083962157 0.21700001 16768739
0.024370654 0.0083962157 0.21700001 16771566
0.025391087 0.0083962157 0.21700001 16772083
0.02641152 0.0083962157 0.21700001 14731729
0.027431956 0.0083962157 0.21700001 16776702
0.028452391 0.0083962157 0.21700001 16776955
0.029472824 0.0083962157 0.21700001 16770794
0.030493259 0.0083962157 0.21700001 15245736
0.031513695 0.0083962157 0.21700001 14784415
0.032534126 0.0083962157 0.21700001 14785185
0.033554561 0.0083962157 0.21700001 14391712
0.034574997 0.0083962157 0.21700001 15050673
0.035595428 0.0083962157 0.21700001 16769255
0.036615863 0.0083962157 0.21700001 16774395
0.037636299 0.0083962157 0.21700001 16769775
0.038656734 0.0083962157 0.21700001 15967149
0.039677165 0.0083962157 0.21700001 16492975
0.040697601 0.0083962157 0.21700001 16756661
0.041718036 0.0083962157 0.21700001 16559538
0.042738467 0.0083962157 0.21700001 16758972
0.043758903 0.0083962157 0.21700001 16233401
0.044779338 0.0083962157 0.21700001 14462902
0.045588713 0.008357523 0.21600001 9008754
0.046604447 0.008357523 0.21600001 10918804
0.047620174 0.008357523 0.21600001 7631982
-0.015355194 0.0093732541 0.21600001 14131105
-0.014405848 0.0094166491 0.21700001 13665934
-0.013385414 0.0094166491 0.21700001 13993359
-0.012364981 0.0094166491 0.21700001 14847125
-0.011344546 0.0094166491 0.21700001 16755378
-0.010324112 0.0094166491 0.21700001 16755634
-0.0093036769 0.0094166491 0.21700001 16492977
-0.0082832435 0.0094166491 0.21700001 13796234
-0.0072628087 0.0094166491 0.21700001 13664909
-0.0062423744 0.0094166491 0.21700001 16771830
-0.0052219401 0.0094166491 0.21700001 16773366
-0.0042015058 0.0094166491 0.21700001 16769258
-0.0031810717 0.0094166491 0.21700001 13407132
-0.0021606374 0.0094166491 0.21700001 15643324
-0.0011402032 0.0094166491 0.21700001 15641777
-0.00011976899 0.0094166491 0.21700001 16362157
0.00090066524 0.0094166491 0.21700001 16034477
0.0019210996 0.0094166491 0.21700001 16768999
0.0029415339 0.0094166491 0.21700001 16773107
0.0039619678 0.0094166491 0.21700001 16772596
0.0049824021 0.0094166491 0.21700001 14132653
0.0060028364 0.0094166491 0.21700001 15971260
0.0070232712 0.0094166491 0.21700001 16166838
0.0080437046 0.0094166491 0.21700001 16692664
0.0090641398 0.0094166491 0.21700001 16493743
0.010084573 0.0094166491 0.21700001 15901606
0.011105007 0.0094166491 0.21700001 15639467
0.012125442 0.0094166491 0.21700001 13869227
0.013145876 0.0094166491 0.21700001 13081762
0.014166309 0.0094166491 0.21700001 14787753
0.015186745 0.0094166491 0.21700001 16560821
0.016207179 0.0094166491 0.21700001 14915226
0.017227614 0.0094166491 0.21700001 13599884
0.018248048 0.0094166491 0.21700001 15113898
0.019268481 0.0094166491 0.21700001 14326435
0.020288916 0.0094166491 0.21700001 13738407
0.021309352 0.0094166491 0.21700001 13476007
0.022329783 0.0094166491 0.21700001 13538200
0.023350218 0.0094166491 0.21700001 14127255
0.024370654 0.0094166491 0.21700001 16432324
0.025391087 0.0094166491 0.21700001 15781840
0.02641152 0.0094166491 0.21700001 16774902
0.027431956 0.0094166491 0.21700001 16776186
0.028452391 0.0094166491 0.21700001 16775927
0.029472824 0.0094166491 0.21700001 16770543
0.030493259 0.0094166491 0.21700001 16561344
0.031513695 0.0094166491 0.21700001 15771310
0.032534126 0.0094166491 0.21700001 15376552
0.033554561 0.0094166491 0.21700001 16100277
0.034574997 0.0094166491 0.21700001 13798292
0.035595428 0.0094166491 0.21700001 15377840
0.036615863 0.0094166491 0.21700001 16768491
0.037636299 0.0094166491 0.21700001 15178664
0.038656734 0.0094166491 0.21700001 16559540
0.039677165 0.0094166491 0.21700001 16558766
0.040697601 0.0094166491 0.21700001 16361387
0.041718036 0.0094166491 0.21700001 16757945
0.042738467 0.0094166491 0.21700001 16363442
0.043758903 0.0094166491 0.21700001 13933987
0.044779338 0.0094166491 0.21700001 6441811
0.045588713 0.0093732541 0.21600001 4604485
0.046604447 0.0093732541 0.21600001 5000270
0.047620174 0.0093732541 0.21600001 4934477
-0.015355194 0.010388987 0.21600001 14066597
-0.014405848 0.010437084 0.21700001 14325917
-0.013385414 0.010437084 0.21700001 14587036
-0.012364981 0.010437084 0.21700001 15308703
-0.011344546 0.010437084 0.21700001 16756406
-0.010324112 0.010437084 0.21700001 16493747
-0.0093036769 0.010437084 0.21700001 16757176
-0.0082832435 0.010437084 0.21700001 16559540
-0.0072628087 0.010437084 0.21700001 16427954
-0.0062423744 0.010437084 0.21700001 14915751
-0.0052219401 0.010437084 0.21700001 16773109
-0.0042015058 0.010437084 0.21700001 16773367
-0.0031810717 0.010437084 0.21700001 15447998
-0.0021606374 0.010437084 0.21700001 15051955
-0.0011402032 0.010437084 0.21700001 15773617
-0.00011976899 0.010437084 0.21700001 16494510
0.00090066524 0.010437084 0.21700001 16362157
0.0019210996 0.010437084 0.21700001 16494776
0.0029415339 0.010437084 0.21700001 14787753
0.0039619678 0.010437084 0.21700001 12816793
0.0049824021 0.010437084 0.21700001 13209751
0.0060028364 0.010437084 0.21700001 13996441
0.0070232712 0.010437084 0.21700001 14719392
0.0080437046 0.010437084 0.21700001 15046814
0.0090641398 0.010437084 0.21700001 16032422
0.010084573 0.010437084 0.21700001 15373465
0.011105007 0.010437084 0.21700001 14784410
0.012125442 0.010437084 0.21700001 13670302
0.013145876 0.010437084 0.21700001 12553358
0.014166309 0.010437084 0.21700001 13536401
0.015186745 0.010437084 0.21700001 13994896
0.016207179 0.010437084 0.21700001 14060689
0.017227614 0.010437084 0.21700001 13402764
0.018248048 0.010437084 0.21700001 14457505
0.019268481 0.010437084 0.21700001 13603739
0.020288916 0.010437084 0.21700001 13211551
0.021309352 0.010437084 0.21700001 12619412
0.022329783 0.010437084 0.21700001 13997976
0.023350218 0.010437084 0.21700001 14654623
0.024370654 0.010437084 0.21700001 14589091
0.025391087 0.010437084 0.21700001 16767200
0.02641152 0.010437084 0.21700001 16634584
0.027431956 0.010437084 0.21700001 15976654
0.028452391 0.010437084 0.21700001 16763604
0.029472824 0.010437084 0.21700001 16034232
0.030493259 0.010437084 0.21700001 16757953
0.031513695 0.010437084 0.21700001 16362938
0.032534126 0.010437084 0.21700001 16560571
0.033554561 0.010437084 0.21700001 15836848
0.034574997 0.010437084 0.21700001 16362422
0.035595428 0.010437084 0.21700001 16163760
0.036615863 0.010437084 0.21700001 15505828
0.037636299 0.010437084 0.21700001 15309473
0.038656734 0.010437084 0.21700001 16691122
0.039677165 0.010437084 0.21700001 16559020
0.040697601 0.010437084 0.21700001 15112344
0.041718036 0.010437084 0.21700001 14258064
0.042738467 0.010437084 0.21700001 14196382
0.043758903 0.010437084 0.21700001 8677227
0.044779338 0.010437084 0.21700001 5196111
0.045588713 0.010388987 0.21600001 4868686
0.046604447 0.010388987 0.21600001 4803663
0.047620174 0.010388987 0.21600001 4803663
-0.015355194 0.011404718 0.21600001 12029322
-0.014405848 0.011457518 0.21700001 12879493
-0.013385414 0.011457518 0.21700001 13666958
-0.012364981 0.011457518 0.21700001 15836330
-0.011344546 0.011457518 0.21700001 16758461
-0.010324112 0.011457518 0.21700001 16757434
-0.0093465513 0.011510317 0.21800001 16294826
-0.0083214147 0.011510317 0.21800001 16755634
-0.0072962777 0.011510317 0.21800001 16756917
-0.0062711411 0.011510317 0.21800001 16689584
-0.0052460046 0.011510317 0.21800001 15966379
-0.0042208675 0.011510317 0.21800001 16165295
-0.0031957312 0.011510317 0.21800001 16431293
-0.0021705944 0.011510317 0.21800001 14131105
-0.0011454576 0.011510317 0.21800001 16431547
-0.00012032092 0.011510317 0.21800001 15900836
0.00090481574 0.011510317 0.21800001 15636896
0.0019299526 0.011510317 0.21800001 15177115
0.0029550893 0.011510317 0.21800001 15704490
0.0039802259 0.011510317 0.21800001 12548741
0.0050053624 0.011510317 0.21800001 13141391
0.0060304995 0.011510317 0.21800001 13733269
0.0070556365 0.011510317 0.21800001 14324636
0.0080807731 0.011510317 0.21800001 14257814
0.0091059096 0.011510317 0.21800001 15111070
0.010131046 0.011510317 0.21800001 15637666
0.011156183 0.011510317 0.21800001 15375779
0.012181319 0.011510317 0.21800001 13208467
0.013206456 0.011510317 0.21800001 12484998
0.014231592 0.011510317 0.21800001 13600911
0.01525673 0.011510317 0.21800001 13666188
0.016281867 0.011510317 0.21800001 14060689
0.017307004 0.011510317 0.21800001 13798290
0.018332139 0.011510317 0.21800001 13733267
0.019357277 0.011510317 0.21800001 13866651
0.020382414 0.011510317 0.21800001 11631236
0.02140755 0.011510317 0.21800001 12551821
0.022432687 0.011510317 0.21800001 13800343
0.023457823 0.011510317 0.21800001 13800345
0.024370654 0.011457518 0.21700001 12418951
0.025391087 0.011457518 0.21700001 14392743
0.02641152 0.011457518 0.21700001 15313332
0.027431956 0.011457518 0.21700001 15442863
0.028452391 0.011457518 0.21700001 16757694
0.029472824 0.011457518 0.21700001 15177635
0.030493259 0.011457518 0.21700001 16362422
0.031513695 0.011457518 0.21700001 15309480
0.032534126 0.011457518 0.21700001 14718113
0.033554561 0.011457518 0.21700001 14718370
0.034574997 0.011457518 0.21700001 15047335
0.035595428 0.011457518 0.21700001 13994644
0.036615863 0.011457518 0.21700001 14388119
0.037636299 0.011457518 0.21700001 13467528
0.038656734 0.011457518 0.21700001 13271173
0.039677165 0.011457518 0.21700001 13337221
0.040697601 0.011457518 0.21700001 13667726
0.041718036 0.011457518 0.21700001 13867933
0.042738467 0.011457518 0.21700001 9005422
0.043758903 0.011457518 0.21700001 4932939
0.044572983 0.011404718 0.21600001 4869456
0.045588713 0.011404718 0.21600001 4737870
-0.015355194 0.01242045 0.21600001 6178890
-0.014405848 0.012477953 0.21700001 11568258
-0.013385414 0.012477953 0.21700001 12551557
-0.012364981 0.012477953 0.21700001 12680063
-0.011344546 0.012477953 0.21700001 13401987
-0.010371689 0.012535455 0.21800001 14190218
-0.0093465513 0.012535455 0.21800001 14519437
-0.0083214147 0.012535455 0.21800001 14255495
-0.0072962777 0.012535455 0.21800001 15306902
-0.0062711411 0.012535455 0.21800001 15504535
-0.0052460046 0.012535455 0.21800001 15834527
-0.0042208675 0.012535455 0.21800001 15836326
-0.0031957312 0.012535455 0.21800001 15509932
-0.0021705944 0.012535455 0.21800001 13012626
-0.0011454576 0.012535455 0.21800001 14392228
-0.00012032092 0.012535455 0.21800001 13993872
0.00090481574 0.012535455 0.21800001 14848152
0.0019299526 0.012535455 0.21800001 15308703
0.0029550893 0.012535455 0.21800001 15637414
0.0039802259 0.012535455 0.21800001 14651802
0.0050053624 0.012535455 0.21800001 13995671
0.0060304995 0.012535455 0.21800001 14258843
0.0070556365 0.012535455 0.21800001 14389402
0.0080807731 0.012535455 0.21800001 14784160
0.0091059096 0.012535455 0.21800001 15177633
0.010131046 0.012535455 0.21800001 14717082
0.011156183 0.012535455 0.21800001 14455450
0.012181319 0.012535455 0.21800001 13404817
0.013206456 0.012535455 0.21800001 12220282
0.014231592 0.012535455 0.21800001 13403786
0.01525673 0.012535455 0.21800001 14521240
0.016281867 0.012535455 0.21800001 14323607
0.017307004 0.012535455 0.21800001 14916001
0.018332139 0.012535455 0.21800001 14784415
0.019357277 0.012535455 0.21800001 13865114
0.020382414 0.012535455 0.21800001 13471641
0.02140755 0.012535455 0.21800001 13471893
0.022432687 0.012535455 0.21800001 13931931
0.023457823 0.012535455 0.21800001 13734552
0.02448296 0.012535455 0.21800001 12813709
0.025508098 0.012535455 0.21800001 12682639
0.026533233 0.012535455 0.21800001 12878991
0.02755837 0.012535455 0.21800001 13535120
0.028583508 0.012535455 0.21800001 14849951
0.029608645 0.012535455 0.21800001 14520216
0.030633781 0.012535455 0.21800001 13402505
0.031658918 0.012535455 0.21800001 14060437
0.032684054 0.012535455 0.21800001 13665936
0.033709191 0.012535455 0.21800001 13468557
0.034734327 0.012535455 0.21800001 13994901
0.035759464 0.012535455 0.21800001 14389659
0.0367846 0.012535455 0.21800001 14258071
0.037809737 0.012535455 0.21800001 13402762
0.038656734 0.012477953 0.21700001 13206153
0.039677165 0.012477953 0.21700001 13667987
0.040697601 0.012477953 0.21700001 13538968
0.041718036 0.012477953 0.21700001 8676198
-0.015355194 0.013436181 0.21600001 5263444
-0.014405848 0.013498386 0.21700001 7099478
-0.013385414 0.013498386 0.21700001 11568260
-0.012421962 0.013560591 0.21800001 12354694
-0.011396824 0.013560591 0.21800001 13932183
-0.010419265 0.013622796 0.21900001 13601933
-0.0093894256 0.013622796 0.21900001 14060685
-0.0083595868 0.013622796 0.21900001 15309982
-0.0073297471 0.013622796 0.21900001 14978964
-0.0062999078 0.013622796 0.21900001 14781585
-0.0052700685 0.013622796 0.21900001 15112605
-0.0042402293 0.013622796 0.21900001 14785185
-0.0032103905 0.013622796 0.21900001 14259872
-0.0021805512 0.013622796 0.21900001 12551823
-0.001150712 0.013622796 0.21900001 13931677
-0.00012087285 0.013622796 0.21900001 13993874
0.00090896629 0.013622796 0.21900001 14848668
0.0019388056 0.013622796 0.21900001 15308703
0.0029686447 0.013622796 0.21900001 15703461
0.003998484 0.013622796 0.21900001 15045529
0.0050283228 0.013622796 0.21900001 14585750
0.0060581621 0.013622796 0.21900001 14980767
0.0070880018 0.013622796 0.21900001 15441320
0.0081178406 0.013622796 0.21900001 15309734
0.0091476804 0.013622796 0.21900001 15572391
0.010177519 0.013622796 0.21900001 15770024
0.011207358 0.013622796 0.21900001 13863056
0.012237198 0.013622796 0.21900001 15508140
0.013267037 0.013622796 0.21900001 15771310
0.014296875 0.013622796 0.21900001 15310756
0.015326715 0.013622796 0.21900001 14125712
0.016356554 0.013622796 0.21900001 14652056
0.017386394 0.013622796 0.21900001 15507111
0.018416231 0.013622796 0.21900001 15178918
0.019446071 0.013622796 0.21900001 14588578
0.020475911 0.013622796 0.21900001 14721193
0.021505751 0.013622796 0.21900001 13405333
0.022535589 0.013622796 0.21900001 13405333
0.023565428 0.013622796 0.21900001 14260124
0.024595268 0.013622796 0.21900001 14129310
0.025625108 0.013622796 0.21900001 13274774
0.026654946 0.013622796 0.21900001 13340053
0.027684785 0.013622796 0.21900001 13470097
0.028714625 0.013622796 0.21900001 13665934
0.029744465 0.013622796 0.21900001 13336712
0.030774305 0.013622796 0.21900001 13402505
0.031804144 0.013622796 0.21900001 14126485
0.032833979 0.013622796 0.21900001 13929106
0.03386382 0.013622796 0.21900001 13863313
0.034893658 0.013622796 0.21900001 13864083
0.0359235 0.013622796 0.21900001 14061462
0.0367846 0.013560591 0.21800001 14061462
0.037809737 0.013560591 0.21800001 13666704
0.038656734 0.013498386 0.21700001 13667987
0.039677165 0.013498386 0.21700001 12814475
0.040697601 0.013498386 0.21700001 11438732
0.041718036 0.013498386 0.21700001 5654861
-0.015355194 0.014451914 0.21600001 5199700
-0.014405848 0.014518821 0.21700001 5261130
-0.013385414 0.014518821 0.21700001 9135977
-0.012478944 0.014652635 0.21900001 11435136
-0.011449104 0.014652635 0.21900001 11565180
-0.010466842 0.014719542 0.22000001 12682891
-0.0094323 0.014719542 0.22000001 12943753
-0.008397758 0.014719542 0.22000001 14520986
-0.0073632165 0.014719542 0.22000001 15441572
-0.0063286745 0.014719542 0.22000001 15375264
-0.005294133 0.014719542 0.22000001 14849433
-0.0042595915 0.014719542 0.22000001 14323859
-0.0032250497 0.014719542 0.22000001 14917543
-0.0021905082 0.014719542 0.22000001 12616844
-0.0011559664 0.014719542 0.22000001 14392482
-0.00012142478 0.014719542 0.22000001 15376552
0.00091311685 0.014719542 0.22000001 14651543
0.0019476586 0.014719542 0.22000001 15045531
0.0029822004 0.014719542 0.22000001 14716566
0.0040167416 0.014719542 0.22000001 14716566
0.0050512836 0.014719542 0.22000001 15176863
0.0060858252 0.014719542 0.22000001 15375012
0.0071203671 0.014719542 0.22000001 15506598
0.0081549082 0.014719542 0.22000001 15637414
0.0091894502 0.014719542 0.22000001 15769254
0.010223992 0.014719542 0.22000001 14848668
0.011258533 0.014719542 0.22000001 13664909
0.012293075 0.014719542 0.22000001 14652574
0.013327616 0.014719542 0.22000001 15244711
0.014362157 0.014719542 0.22000001 15836076
0.0153967 0.014719542 0.22000001 15046562
0.016431242 0.014719542 0.22000001 13797265
0.017465783 0.014719542 0.22000001 14126233
0.018500324 0.014719542 0.22000001 14850210
0.019534867 0.014719542 0.22000001 14258843
0.020569408 0.014719542 0.22000001 14457505
0.021603951 0.014719542 0.22000001 13800093
0.02263849 0.014719542 0.22000001 12879243
0.023673033 0.014719542 0.22000001 14324634
0.024707576 0.014719542 0.22000001 13602194
0.025742117 0.014719542 0.22000001 14064290
0.026654946 0.014652635 0.21900001 13801890
0.027684785 0.014652635 0.21900001 14325919
0.028714625 0.014652635 0.21900001 13600913
0.029744465 0.014652635 0.21900001 13140362
0.030914826 0.014719542 0.22000001 13271948
0.031949367 0.014719542 0.22000001 14128027
0.032983907 0.014719542 0.22000001 14062747
0.034018449 0.014719542 0.22000001 13141391
0.035052992 0.014719542 0.22000001 12482948
0.0359235 0.014652635 0.21900001 13009292
0.036953337 0.014652635 0.21900001 13207438
0.037809737 0.014585728 0.21800001 13866138
0.038834877 0.014585728 0.21800001 13603993
0.039677165 0.014518821 0.21700001 11568773
0.040697601 0.014518821 0.21700001 5719624
0.041718036 0.014518821 0.21700001 5065808
-0.014405848 0.015539255 0.21700001 5790556
-0.013447098 0.015610864 0.21800001 7099992
-0.012478944 0.015682474 0.21900001 9594470
-0.011501383 0.015754083 0.22000001 11499898
-0.010514419 0.015825693 0.22100002 12682889
-0.0094751734 0.015825693 0.22100002 13207438
-0.0084359301 0.015825693 0.22100002 14587036
-0.0073966854 0.015825693 0.22100002 15441570
-0.0063574412 0.015825693 0.22100002 15967914
-0.0053181974 0.015825693 0.22100002 16098987
-0.0042789532 0.015825693 0.22100002 16230575
-0.0032397092 0.015825693 0.22100002 15376300
-0.002200465 0.015825693 0.22100002 12417155
-0.0011612208 0.015825693 0.22100002 14325152
-0.00012197671 0.015825693 0.22100002 14060437
0.00091726735 0.015825693 0.22100002 14256015
0.0019565115 0.015825693 0.22100002 14519187
0.0029957558 0.015825693 0.22100002 14584980
0.0040349998 0.015825693 0.22100002 14518163
0.005074244 0.015825693 0.22100002 15571105
0.0061134882 0.015825693 0.22100002 15768484
0.0071527325 0.015825693 0.22100002 16755379
0.0081919767 0.015825693 0.22100002 16492207
0.0092312209 0.015825693 0.22100002 15242140
0.010270464 0.015825693 0.22100002 14716312
0.011309708 0.015825693 0.22100002 13795982
0.012348953 0.015825693 0.22100002 14388119
0.013388197 0.015825693 0.22100002 15046049
0.01442744 0.015825693 0.22100002 16230323
0.015466685 0.015825693 0.22100002 14520218
0.016505929 0.015825693 0.22100002 13797011
0.017545175 0.015825693 0.22100002 14257819
0.018584417 0.015825693 0.22100002 14258073
0.019623661 0.015825693 0.22100002 13600913
0.020662906 0.015825693 0.22100002 13470610
0.02170215 0.015825693 0.22100002 13405333
0.022741394 0.015825693 0.22100002 14391199
0.023780638 0.015825693 0.22100002 14128027
0.024819883 0.015825693 0.22100002 14325406
0.025859127 0.015825693 0.22100002 14326948
0.026776658 0.015754083 0.22000001 14197163
0.027811199 0.015754083 0.22000001 13800093
0.028845742 0.015754083 0.22000001 14061980
0.029880283 0.015754083 0.22000001 13733015
0.030914826 0.015754083 0.22000001 12944012
0.031949367 0.015754083 0.22000001 12418438
0.032983907 0.015754083 0.22000001 13932190
0.034018449 0.015754083 0.22000001 14129569
0.035052992 0.015754083 0.22000001 12550024
0.036087532 0.015754083 0.22000001 12813196
0.037122075 0.015754083 0.22000001 13471639
0.037983179 0.015682474 0.21900001 11170168
0.038834877 0.015610864 0.21800001 9857390
0.039677165 0.015539255 0.21700001 6507343
0.040697601 0.015539255 0.21700001 5394003
-0.013508783 0.016712314 0.21900001 5918547
-0.012478944 0.016712314 0.21900001 9004389
-0.011553662 0.016864939 0.22100002 11895680
-0.010561995 0.016941249 0.22200002 12552327
-0.0095180478 0.016941249 0.22200002 13801110
-0.0084741022 0.016941249 0.22200002 13404556
-0.0074301548 0.016941249 0.22200002 14192532
-0.0063862083 0.016941249 0.22200002 15046814
-0.0053422614 0.016941249 0.22200002 15769254
-0.0042983149 0.016941249 0.22200002 16033196
-0.0032543684 0.016941249 0.22200002 15442090
-0.002210422 0.016941249 0.22200002 14652574
-0.0011664752 0.016941249 0.22200002 13928851
-0.00012252865 0.016941249 0.22200002 13862286
0.0009214179 0.016941249 0.22200002 14189452
0.0019653647 0.016941249 0.22200002 15373726
0.0030093112 0.016941249 0.22200002 16163242
0.0040532579 0.016941249 0.22200002 16360362
0.0050972044 0.016941249 0.22200002 16426155
0.0061411508 0.016941249 0.22200002 16030627
0.0071850978 0.016941249 0.22200002 15505053
0.0082290443 0.016941249 0.22200002 15439262
0.0092729907 0.016941249 0.22200002 15439519
0.010316937 0.016941249 0.22200002 14978714
0.011360884 0.016941249 0.22200002 14649749
0.01240483 0.016941249 0.22200002 14781335
0.013448777 0.016941249 0.22200002 14912923
0.014492723 0.016941249 0.22200002 16162990
0.01553667 0.016941249 0.22200002 15571623
0.016580617 0.016941249 0.22200002 14190486
0.017624564 0.016941249 0.22200002 14058900
0.01866851 0.016941249 0.22200002 13993361
0.019712457 0.016941249 0.22200002 13863058
0.020756403 0.016941249 0.22200002 13732499
0.02180035 0.016941249 0.22200002 13864855
0.022844296 0.016941249 0.22200002 14325152
0.023888243 0.016941249 0.22200002 13864855
0.024932191 0.016941249 0.22200002 14523298
0.025976136 0.016941249 0.22200002 14721193
0.026898371 0.016864939 0.22100002 15709887
0.027937615 0.016864939 0.22100002 14393005
0.02897686 0.016864939 0.22100002 12417670
0.030016104 0.016864939 0.22100002 13141132
0.031055348 0.016864939 0.22100002 13470610
0.032094594 0.016864939 0.22100002 13734552
0.033133835 0.016864939 0.22100002 12747657
0.034173079 0.016864939 0.22100002 13207954
0.035212323 0.016864939 0.22100002 13208467
0.036251567 0.016864939 0.22100002 12222086
0.037122075 0.016788626 0.22000001 11762305
0.038156617 0.016788626 0.22000001 10316657
0.038834877 0.016636001 0.21800001 8676457
0.039677165 0.01655969 0.21700001 5590097
-0.012535925 0.017823167 0.22000001 7100246
-0.011605942 0.017985197 0.22200002 9726569
-0.010609571 0.018066211 0.223 11961219
-0.0095609212 0.018066211 0.223 12157315
-0.0085122725 0.018066211 0.223 13076620
-0.0074636233 0.018066211 0.223 13996693
-0.0064149746 0.018066211 0.223 13995151
-0.0053663254 0.018066211 0.223 15309473
-0.0043176766 0.018066211 0.223 15309986
-0.0032690277 0.018066211 0.223 15046560
-0.0022203785 0.018066211 0.223 15046562
-0.0011717295 0.018066211 0.223 14848670
-0.00012308056 0.018066211 0.223 14256531
0.0009255684 0.018066211 0.223 15768484
0.0019742176 0.018066211 0.223 16556973
0.0030228666 0.018066211 0.223 16623536
0.0040715155 0.018066211 0.223 16557743
0.0051201642 0.018066211 0.223 16623793
0.0061688134 0.018066211 0.223 15242140
0.0072174626 0.018066211 0.223 15307679
0.0082661118 0.018066211 0.223 15176865
0.0093147606 0.018066211 0.223 15571621
0.010363409 0.018066211 0.223 15637668
0.011412058 0.018066211 0.223 15636641
0.012460708 0.018066211 0.223 14583953
0.013509356 0.018066211 0.223 14715542
0.014558005 0.018066211 0.223 13795980
0.015606654 0.018066211 0.223 14848929
0.016655304 0.018066211 0.223 14914976
0.017703952 0.018066211 0.223 14124947
0.018752601 0.018066211 0.223 14124947
0.01980125 0.018066211 0.223 15113125
0.0208499 0.018066211 0.223 15443115
0.021898549 0.018066211 0.223 15179945
0.022947198 0.018066211 0.223 14128027
0.023995847 0.018066211 0.223 13338770
0.025044495 0.018066211 0.223 13601942
0.026093146 0.018066211 0.223 14655400
0.027020082 0.017985197 0.22200002 14459820
0.028064029 0.017985197 0.22200002 14262956
0.029107977 0.017985197 0.22200002 13734811
0.030151924 0.017985197 0.22200002 13602196
0.031195872 0.017985197 0.22200002 13141645
0.032239817 0.017985197 0.22200002 12813450
0.033283763 0.017985197 0.22200002 13339792
0.034327708 0.017985197 0.22200002 13273999
0.035371654 0.017985197 0.22200002 13208721
0.036415603 0.017985197 0.22200002 12353672
0.037290812 0.017904183 0.22100002 11368832
-0.01165822 0.019114858 0.223 8872803
-0.010704724 0.019286292 0.22500001 10120042
-0.00964667 0.019286292 0.22500001 11237496
-0.0085886167 0.019286292 0.22500001 12881040
-0.0075305621 0.019286292 0.22500001 13471891
-0.006472508 0.019286292 0.22500001 14195101
-0.0053903898 0.019200575 0.22400001 14193818
-0.0043370384 0.019200575 0.22400001 14323864
-0.0032836869 0.019200575 0.22400001 14849951
-0.0022303355 0.019200575 0.22400001 15178916
-0.0011769839 0.019200575 0.22400001 15967916
-0.0001236325 0.019200575 0.22400001 14454164
0.00092971895 0.019200575 0.22400001 15308703
0.0019830705 0.019200575 0.22400001 15703461
0.003036422 0.019200575 0.22400001 16164012
0.0040897732 0.019200575 0.22400001 15638438
0.0051431246 0.019200575 0.22400001 15112355
0.0061964765 0.019200575 0.22400001 14783390
0.0072498284 0.019200575 0.22400001 14652320
0.0083031794 0.019200575 0.22400001 13797013
0.0093565313 0.019200575 0.22400001 13993361
0.010409882 0.019200575 0.22400001 14979484
0.011463233 0.019200575 0.22400001 16228781
0.012516585 0.019200575 0.22400001 15636641
0.013569936 0.019200575 0.22400001 15308449
0.014623287 0.019200575 0.22400001 13204358
0.01567664 0.019200575 0.22400001 13730702
0.016729992 0.019200575 0.22400001 15244711
0.017783344 0.019200575 0.22400001 15573676
0.018836694 0.019200575 0.22400001 15376295
0.019890046 0.019200575 0.22400001 15639467
0.020943398 0.019200575 0.22400001 15706287
0.02199675 0.019200575 0.22400001 14916773
0.0230501 0.019200575 0.22400001 13666706
0.024103452 0.019200575 0.22400001 13864085
0.025156803 0.019200575 0.22400001 13601683
0.026093146 0.019114858 0.223 13602196
0.027141793 0.019114858 0.223 13208721
0.028190443 0.019114858 0.223 14854839
0.029239092 0.019114858 0.223 13144473
0.030287741 0.019114858 0.223 13801372
0.031336389 0.019114858 0.223 13800858
0.032530263 0.019200575 0.22400001 13669272
0.033583615 0.019200575 0.22400001 13800604
0.034636967 0.019200575 0.22400001 13274774
0.035690319 0.019200575 0.22400001 11893893
0.036415603 0.019029142 0.22200002 10513523
0.037290812 0.018943425 0.22100002 9791597
-0.011762778 0.020344347 0.22500001 7558228
-0.010799877 0.020525185 0.22700001 9134432
-0.0097324178 0.020525185 0.22700001 10843765
-0.00866496 0.020525185 0.22700001 11369084
-0.0075640311 0.020434767 0.22600001 12157317
-0.0065012746 0.020434767 0.22600001 13144212
-0.0054385182 0.020434767 0.22600001 13471639
-0.0043564001 0.020344347 0.22500001 14720677
-0.0032983462 0.020344347 0.22500001 14982566
-0.0022402923 0.020344347 0.22500001 14784415
-0.0011822383 0.020344347 0.22500001 14850205
-0.00012418443 0.020344347 0.22500001 15901610
0.00093386945 0.020344347 0.22500001 15770022
0.0019919234 0.020344347 0.22500001 15375266
0.0030499776 0.020344347 0.22500001 14980767
0.0041080313 0.020344347 0.22500001 14783136
0.0051660854 0.020344347 0.22500001 14126233
0.0062241391 0.020344347 0.22500001 13732245
0.0072821938 0.020344347 0.22500001 13403280
0.008340247 0.020344347 0.22500001 13204876
0.0093983011 0.020344347 0.22500001 14322839
0.010456355 0.020344347 0.22500001 14453912
0.011514409 0.020344347 0.22500001 14584726
0.012572463 0.020344347 0.22500001 15769254
0.013630517 0.020344347 0.22500001 15046047
0.01468857 0.020344347 0.22500001 14914974
0.015746625 0.020344347 0.22500001 14915744
0.016804678 0.020344347 0.22500001 14126487
0.017862733 0.020344347 0.22500001 14126487
0.018920787 0.020344347 0.22500001 15047589
0.01997884 0.020344347 0.22500001 14718367
0.021036895 0.020344347 0.22500001 14257816
0.022094948 0.020344347 0.22500001 13732497
0.023153001 0.020344347 0.22500001 13995669
0.024211057 0.020344347 0.22500001 13667474
0.02526911 0.020344347 0.22500001 13799573
0.026210155 0.020253927 0.22400001 13866136
0.027263505 0.020253927 0.22400001 13603993
0.028316857 0.020253927 0.22400001 14394542
0.029370209 0.020253927 0.22400001 13013657
0.030423561 0.020253927 0.22400001 13144725
0.031617437 0.020344347 0.22500001 13407130
0.03267549 0.020344347 0.22500001 12156293
0.033733539 0.020344347 0.22500001 11499646
0.034791596 0.020344347 0.22500001 11433853
0.035849649 0.020344347 0.22500001 10974074
0.036743671 0.020253927 0.22400001 10580343
-0.013333665 0.022258498 0.23400001 5130827
-0.012024173 0.02187801 0.23 6837072
-0.010847454 0.021687767 0.22800002 8346713
-0.0098181665 0.021782888 0.22900002 9068639
-0.0087413033 0.021782888 0.22900002 10712951
-0.0076309699 0.021687767 0.22800002 11698562
-0.006558808 0.021687767 0.22800002 11960967
-0.0054625827 0.021592645 0.22700001 11499646
-0.0043951236 0.021592645 0.22700001 11761537
-0.0033276649 0.021592645 0.22700001 13799575
-0.0022502493 0.021497523 0.22600001 14391199
-0.0011874927 0.021497523 0.22600001 13994899
-0.00012473637 0.021497523 0.22600001 14651289
0.00093802001 0.021497523 0.22600001 15703461
0.0020007766 0.021497523 0.22600001 14387347
0.003063533 0.021497523 0.22600001 14322839
0.0041262894 0.021497523 0.22600001 13928854
0.0051890458 0.021497523 0.22600001 13205905
0.0062518022 0.021497523 0.22600001 12811147
0.0073145591 0.021497523 0.22600001 13403280
0.0083773145 0.021497523 0.22600001 14257819
0.0094400719 0.021497523 0.22600001 15835824
0.010502828 0.021497523 0.22600001 14849183
0.011565584 0.021497523 0.22600001 14256533
0.012628341 0.021497523 0.22600001 14189970
0.013691097 0.021497523 0.22600001 13599116
0.014753853 0.021497523 0.22600001 13467276
0.01581661 0.021497523 0.22600001 14849956
0.016879367 0.021497523 0.22600001 13797268
0.017942123 0.021497523 0.22600001 15376300
0.019004878 0.021497523 0.22600001 15047589
0.020067636 0.021497523 0.22600001 14718624
0.021130392 0.021497523 0.22600001 14193048
0.022193149 0.021497523 0.22600001 13996439
0.023255905 0.021497523 0.22600001 13996439
0.024318662 0.021497523 0.22600001 13272718
0.025381418 0.021497523 0.22600001 12879243
0.026327165 0.021402402 0.22500001 12156033
0.027385218 0.021402402 0.22500001 12814225
0.028443271 0.021402402 0.22500001 13211551
0.029501326 0.021402402 0.22500001 13475237
0.030559381 0.021402402 0.22500001 11500931
0.031757958 0.021497523 0.22600001 11763590
0.032820713 0.021497523 0.22600001 11829383
0.033883467 0.021497523 0.22600001 11763588
0.034946226 0.021497523 0.22600001 11303552
0.03600898 0.021497523 0.22600001 10449527
-0.013447629 0.023558524 0.23600002 4802634
-0.012233289 0.023358874 0.23400001 5588549
-0.010895031 0.022859754 0.22900002 7821652
-0.0099039143 0.0230594 0.23100001 8938850
-0.0088176457 0.0230594 0.23100001 10450038
-0.0076979077 0.022959577 0.23 10317939
-0.0066163414 0.022959577 0.23 11106685
-0.0055107111 0.022859754 0.22900002 11369857
-0.0044144853 0.022759929 0.22800002 11829894
-0.0033423244 0.022759929 0.22800002 12353672
-0.002270163 0.022759929 0.22800002 14195103
-0.0011980016 0.022759929 0.22800002 13930646
-0.00012584023 0.022759929 0.22800002 13731727
0.00094632106 0.022759929 0.22800002 14192023
0.0020184827 0.022759929 0.22800002 14060437
0.003090644 0.022759929 0.22800002 13929108
0.0041628052 0.022759929 0.22800002 13798038
0.0052349665 0.022759929 0.22800002 13338772
0.0063071279 0.022759929 0.22800002 12549256
0.0073792897 0.022759929 0.22800002 14917289
0.0084514506 0.022759929 0.22800002 13996441
0.0095236124 0.022759929 0.22800002 13732499
0.010595773 0.022759929 0.22800002 14126233
0.011667934 0.022759929 0.22800002 14192280
0.012740096 0.022759929 0.22800002 13994644
0.013812257 0.022759929 0.22800002 14192280
0.014884418 0.022759929 0.22800002 13994901
0.015956581 0.022759929 0.22800002 13929108
0.017028742 0.022759929 0.22800002 14324636
0.018100904 0.022759929 0.22800002 14193566
0.019173063 0.022759929 0.22800002 14325152
0.020245226 0.022759929 0.22800002 14259872
0.021317387 0.022759929 0.22800002 14129310
0.02238955 0.022759929 0.22800002 14195103
0.023461709 0.022759929 0.22800002 13273747
0.024426267 0.022660105 0.22700001 13339794
0.025493726 0.022660105 0.22700001 13142928
0.026444174 0.02256028 0.22600001 12222340
0.027506931 0.02256028 0.22600001 11893891
0.028569687 0.02256028 0.22600001 11895689
0.029632444 0.02256028 0.22600001 13278628
0.0306952 0.02256028 0.22600001 12094354
0.03189848 0.022660105 0.22700001 11567238
0.032965939 0.022660105 0.22700001 10909308
0.034033395 0.022660105 0.22700001 10713212
0.035100855 0.022660105 0.22700001 10056054
0.03600898 0.02256028 0.22600001 9333358
-0.012337848 0.024668302 0.23600002 5130316
-0.010032536 0.024459248 0.23400001 8347483
-0.008893989 0.024354722 0.23300001 9465194
-0.0077983155 0.024354722 0.23300001 9596012
-0.0066738748 0.024250194 0.23200001 10120562
-0.0055588395 0.024145668 0.23100001 11436420
-0.0044532088 0.02404114 0.23 11369857
-0.0033569837 0.023936616 0.22900002 12158346
-0.0022801198 0.023936616 0.22900002 12222856
-0.001203256 0.023936616 0.22900002 13340307
-0.00012639216 0.023936616 0.22900002 13274001
0.00095047161 0.023936616 0.22900002 13010829
0.0020273356 0.023936616 0.22900002 13536403
0.0031041994 0.023936616 0.22900002 14128540
0.0041810633 0.023936616 0.22900002 14062493
0.0052579269 0.023936616 0.22900002 14259872
0.006334791 0.023936616 0.22900002 13601942
0.007411655 0.023936616 0.22900002 13667735
0.0084885182 0.023936616 0.22900002 14325665
0.0095653832 0.023936616 0.22900002 13865114
0.010642246 0.023936616 0.22900002 13996700
0.011719109 0.023936616 0.22900002 12417155
0.012795974 0.023936616 0.22900002 12154237
0.013872838 0.023936616 0.22900002 12680581
0.014949701 0.023936616 0.22900002 12285571
0.016026566 0.023936616 0.22900002 14325406
0.01710343 0.023936616 0.22900002 14391712
0.018180294 0.023936616 0.22900002 13406100
0.019257156 0.023936616 0.22900002 13340821
0.02033402 0.023936616 0.22900002 13340567
0.021410884 0.023936616 0.22900002 13208981
0.022487748 0.023936616 0.22900002 13011602
0.023564611 0.023936616 0.22900002 12748430
0.024533872 0.023832088 0.22800002 11959684
0.025606032 0.023832088 0.22800002 11762559
0.026561184 0.023727562 0.22700001 12618381
0.027628642 0.023727562 0.22700001 12355979
0.028696101 0.023727562 0.22700001 11370111
0.029763561 0.023727562 0.22700001 11240326
0.03083102 0.023727562 0.22700001 9924727
0.03189848 0.023727562 0.22700001 10319739
0.033111162 0.023832088 0.22800002 10516605
0.034183323 0.023832088 0.22800002 10451325
-0.012337848 0.025778085 0.23600002 5000270
-0.010118285 0.025778085 0.23600002 7163470
-0.0089703333 0.025668854 0.23500001 8544608
-0.0078652538 0.025668854 0.23500001 8807782
-0.0067314082 0.025559625 0.23400001 8807782
-0.005606968 0.025450395 0.23300001 9529710
-0.0044919327 0.025341166 0.23200001 10515833
-0.0033863022 0.025231937 0.23100001 11500929
-0.0023000333 0.025231937 0.23100001 11895174
-0.0012137647 0.025231937 0.23100001 12355209
-0.00012749602 0.025231937 0.23100001 12486282
0.00095877261 0.025231937 0.23100001 13011856
0.0020450414 0.025231937 0.23100001 13340821
0.0031313102 0.025231937 0.23100001 13275028
0.0042175786 0.025231937 0.23100001 13603479
0.0053038476 0.025231937 0.23100001 13340307
0.0063901162 0.025231937 0.23100001 12945295
0.0074763852 0.025231937 0.23100001 13339794
0.0085626533 0.025231937 0.23100001 12681864
0.0096489228 0.025231937 0.23100001 12747657
0.010735191 0.025231937 0.23100001 12484485
0.011821459 0.025231937 0.23100001 13339024
0.012907729 0.025231937 0.23100001 13536403
0.013993997 0.025231937 0.23100001 12221313
0.015080265 0.025231937 0.23100001 12351875
0.016166534 0.025231937 0.23100001 13866138
0.017252803 0.025231937 0.23100001 14064030
0.018339073 0.025231937 0.23100001 12157063
0.01942534 0.025231937 0.23100001 11762305
0.020511609 0.025231937 0.23100001 11762307
0.021597879 0.025231937 0.23100001 11696514
0.022684148 0.025231937 0.23100001 12090502
0.023667512 0.025122708 0.23 11499646
0.02474908 0.025122708 0.23 11105658
0.025718341 0.02501348 0.22900002 11237244
0.026678195 0.024904251 0.22800002 10974072
0.027750354 0.024904251 0.22800002 10843253
0.028696101 0.024795022 0.22700001 10778744
0.029763561 0.024795022 0.22700001 10976382
0.03083102 0.024795022 0.22700001 10583171
0.03189848 0.024795022 0.22700001 9135725
0.033111162 0.024904251 0.22800002 8740967
0.034183323 0.024904251 0.22800002 7886943
-0.011370796 0.027229659 0.23900001 4208442
-0.01016116 0.027001798 0.23700002 6573388
-0.0090085045 0.026887866 0.23600002 7032654
-0.0078987228 0.026887866 0.23600002 7491924
-0.006788942 0.026887866 0.23600002 8609119
-0.0056550964 0.026773933 0.23500001 8740192
-0.0045306562 0.026660003 0.23400001 9924464
-0.0034156209 0.02654607 0.23300001 11239041
-0.0023099903 0.026432138 0.23200001 11568260
-0.0012190191 0.026432138 0.23200001 11895687
-0.00012804795 0.026432138 0.23200001 12422285
0.00096292316 0.026432138 0.23200001 13013139
0.0020538946 0.026432138 0.23200001 13078932
0.0031448656 0.026432138 0.23200001 13013139
0.0042358367 0.026432138 0.23200001 12618381
0.005326808 0.026432138 0.23200001 12421002
0.0064177793 0.026432138 0.23200001 11170935
0.0075087505 0.026432138 0.23200001 11959684
0.0085997218 0.026432138 0.23200001 12551305
0.0096906926 0.026432138 0.23200001 12090754
0.010781663 0.026432138 0.23200001 12484746
0.011872634 0.026432138 0.23200001 12616330
0.012963606 0.026432138 0.23200001 13735065
0.014054577 0.026432138 0.23200001 12945549
0.015145548 0.026432138 0.23200001 13274514
0.016236519 0.026432138 0.23200001 12813963
0.017327491 0.026432138 0.23200001 12090754
0.018418463 0.026432138 0.23200001 11565693
0.019509433 0.026432138 0.23200001 11368314
0.020600405 0.026432138 0.23200001 12618129
0.021691376 0.026432138 0.23200001 12421520
0.022782348 0.026432138 0.23200001 12158348
0.023873318 0.026432138 0.23200001 11237244
0.024856685 0.026318206 0.23100001 10579827
0.025830645 0.026204275 0.23 10317169
0.026795205 0.026090344 0.22900002 10382962
0.027872067 0.026090344 0.22900002 10581111
0.028822517 0.025976412 0.22800002 10384245
0.029894678 0.025976412 0.22800002 9859186
0.03083102 0.025862481 0.22700001 10518663
0.03189848 0.025862481 0.22700001 7822180
0.033111162 0.025976412 0.22800002 7559008
-0.01016116 0.028116282 0.23700002 5851210
-0.0090466766 0.028116282 0.23700002 6770765
-0.0079321926 0.028116282 0.23700002 7098447
-0.0068177087 0.028116282 0.23700002 8347231
-0.0056791608 0.027997646 0.23600002 9859698
-0.0045500179 0.027879013 0.23500001 9728112
-0.0034302801 0.027760379 0.23400001 10516601
-0.0023199471 0.027641743 0.23300001 11240326
-0.0012242735 0.027641743 0.23300001 11371140
-0.00012859989 0.027641743 0.23300001 11699592
0.00096707372 0.027641743 0.23300001 11895687
0.0020627475 0.027641743 0.23300001 12224652
0.0031584213 0.027641743 0.23300001 12093066
0.0042540948 0.027641743 0.23300001 11501443
0.0053497683 0.027641743 0.23300001 10909046
0.0064454419 0.027641743 0.23300001 11172218
0.0075411159 0.027641743 0.23300001 11631486
0.0086367894 0.027641743 0.23300001 11894658
0.0097324634 0.027641743 0.23300001 12223110
0.010828136 0.027641743 0.23300001 11959938
0.01192381 0.027641743 0.23300001 11894145
0.013019484 0.027641743 0.23300001 11696766
0.014115158 0.027641743 0.23300001 11565180
0.015210831 0.027641743 0.23300001 11696766
0.016306505 0.027641743 0.23300001 12026244
0.01740218 0.027641743 0.23300001 11763842
0.018497853 0.027641743 0.23300001 11961221
0.019593526 0.027641743 0.23300001 12290186
0.020689199 0.027641743 0.23300001 12027014
0.021784874 0.027641743 0.23300001 12224393
0.022880547 0.027641743 0.23300001 12158861
0.02397622 0.027641743 0.23300001 9527139
0.02496429 0.02752311 0.23200001 9857390
0.025942953 0.027404476 0.23100001 9660524
0.026912212 0.02728584 0.23 10121075
0.027872067 0.027167208 0.22900002 9792880
0.028822517 0.027048575 0.22800002 9464430
0.029894678 0.027048575 0.22800002 8150113
0.0306952 0.026811305 0.22600001 8414837
0.031757958 0.026811305 0.22600001 6181723
-0.0079321926 0.029230764 0.23700002 5389887
-0.0068177087 0.029230764 0.23700002 6967376
-0.0056791608 0.029107427 0.23600002 7230035
-0.0045500179 0.02898409 0.23500001 10189950
-0.0034302801 0.028860753 0.23400001 9729397
-0.0023299041 0.028860753 0.23400001 10254458
-0.0012295279 0.028860753 0.23400001 10649216
-0.00012915181 0.028860753 0.23400001 11175046
0.00097122428 0.028860753 0.23400001 11438218
0.0020716004 0.028860753 0.23400001 11042947
0.0031719767 0.028860753 0.23400001 11173761
0.0042906106 0.02898409 0.23500001 11502726
0.005395689 0.02898409 0.23500001 11239295
0.0065007675 0.02898409 0.23500001 10976123
0.007605847 0.02898409 0.23500001 11106939
0.0087109245 0.02898409 0.23500001 11172218
0.009816004 0.02898409 0.23500001 11369597
0.010921082 0.02898409 0.23500001 11369084
0.01202616 0.02898409 0.23500001 11105912
0.013131239 0.02898409 0.23500001 10974326
0.014236318 0.02898409 0.23500001 11369084
0.015341396 0.02898409 0.23500001 11500670
0.016446475 0.02898409 0.23500001 11369084
0.017551554 0.02898409 0.23500001 11501183
0.018656634 0.02898409 0.23500001 11238525
0.019761709 0.02898409 0.23500001 11041146
0.020866789 0.02898409 0.23500001 10777974
0.021878371 0.028860753 0.23400001 10251376
0.022978747 0.028860753 0.23400001 9725802
0.024079122 0.028860753 0.23400001 9528936
0.025071895 0.028737416 0.23300001 9332844
0.026055261 0.02861408 0.23200001 8937832
0.027029222 0.028490743 0.23100001 8411742
0.027993778 0.028367406 0.23 8084059
0.028822517 0.028120734 0.22800002 7230035
0.029894678 0.028120734 0.22800002 7166047
0.0306952 0.02787406 0.22600001 6116191
-0.0079321926 0.030345246 0.23700002 2564900
-0.006788942 0.030217206 0.23600002 2694943
-0.0056791608 0.030217206 0.23600002 5061441
-0.0045500179 0.030089168 0.23500001 7428959
-0.0034302801 0.029961128 0.23400001 10914189
-0.0023299041 0.029961128 0.23400001 10255228
-0.0012347823 0.030089168 0.23500001 10452605
-0.00012970375 0.030089168 0.23500001 10255480
0.00097537477 0.030089168 0.23500001 10057847
0.0020804536 0.030089168 0.23500001 10780802
0.0031855321 0.030089168 0.23500001 11306630
0.0043088687 0.030217206 0.23600002 11175044
