# .PCD v0.7 - Point Cloud Data file format
VERSION 0.7
FIELDS x y z rgb
SIZE 4 4 4 4
TYPE F F F U
COUNT 1 1 1 1
WIDTH 1086
HEIGHT 1
VIEWPOINT 0 0 0 1 0 0 0
POINTS 1086
DATA ascii
0.006505426 0.011557919 0.20100001 14724788
0.0074506206 0.011557919 0.20100001 15313584
0.008437586 0.011615422 0.20200001 16167610
0.0093874829 0.011615422 0.20200001 16760004
0.01033738 0.011615422 0.20200001 16760774
0.011287278 0.011615422 0.20200001 13472925
0.012237174 0.011615422 0.20200001 16773621
0.013187071 0.011615422 0.20200001 16773881
0.014136969 0.011615422 0.20200001 14003895
0.015086867 0.011615422 0.20200001 12753828
0.016036766 0.011615422 0.20200001 13082791
0.016986661 0.011615422 0.20200001 14262956
0.017936559 0.011615422 0.20200001 15049642
0.018886456 0.011615422 0.20200001 15379629
0.019836355 0.011615422 0.20200001 14855343
0.02078625 0.011615422 0.20200001 16771314
0.021736149 0.011615422 0.20200001 16769518
0.022686046 0.011615422 0.20200001 16109022
0.023635944 0.011615422 0.20200001 11898006
0.024585839 0.011615422 0.20200001 14658482
0.025535738 0.011615422 0.20200001 14655913
0.026485635 0.011615422 0.20200001 15445429
0.027571352 0.011672923 0.20300001 15710402
0.028525952 0.011672923 0.20300001 16774648
0.029480552 0.011672923 0.20300001 16776699
0.03043515 0.011672923 0.20300001 16707568
0.031389751 0.011672923 0.20300001 16769773
0.032185018 0.011615422 0.20200001 14589609
0.033298951 0.011672923 0.20300001 13734815
0.034253553 0.011672923 0.20300001 16762836
0.035034712 0.011615422 0.20200001 16775419
0.035984609 0.011615422 0.20200001 16776955
0.036934502 0.011615422 0.20200001 16775671
0.037884403 0.011615422 0.20200001 15707570
0.0388343 0.011615422 0.20200001 14784412
0.039784197 0.011615422 0.20200001 13929360
0.040734094 0.011615422 0.20200001 13798544
0.041683994 0.011615422 0.20200001 14062486
0.042633891 0.011615422 0.20200001 13141897
0.043583788 0.011615422 0.20200001 12484737
0.044533681 0.011615422 0.20200001 12419457
0.045483582 0.011615422 0.20200001 11040632
0.046433479 0.011615422 0.20200001 3876387
0.047383375 0.011615422 0.20200001 3024419
-0.016098756 0.012440909 0.2 10257026
-0.015158265 0.012440909 0.2 12224391
-0.01428886 0.012503114 0.20100001 12682629
-0.013343666 0.012503114 0.20100001 13601165
-0.012398471 0.012503114 0.20100001 13401474
-0.011453277 0.012503114 0.20100001 12413039
-0.010508081 0.012503114 0.20100001 12479602
-0.0095628873 0.012503114 0.20100001 12415092
-0.0086176917 0.012503114 0.20100001 12086897
-0.0076724971 0.012503114 0.20100001 12087156
-0.006727302 0.012503114 0.20100001 12220541
-0.0057821069 0.012503114 0.20100001 16766938
-0.0048369123 0.012503114 0.20100001 16767708
-0.0038917174 0.012503114 0.20100001 14195876
-0.0029465226 0.012503114 0.20100001 9919333
-0.0020013277 0.012503114 0.20100001 11300209
-0.001056133 0.012503114 0.20100001 12876672
-0.0001109381 0.012503114 0.20100001 12547450
0.0008342567 0.012503114 0.20100001 11955316
0.0017794516 0.012503114 0.20100001 12877960
0.0027246466 0.012503114 0.20100001 11957117
0.0036698412 0.012503114 0.20100001 16768484
0.0046150358 0.012503114 0.20100001 16767197
0.0055602309 0.012503114 0.20100001 15451339
0.006505426 0.012503114 0.20100001 14329265
0.0074506206 0.012503114 0.20100001 14786986
0.008437586 0.012565318 0.20200001 15378607
0.0093874829 0.012565318 0.20200001 13602196
0.01033738 0.012565318 0.20200001 14392482
0.011287278 0.012565318 0.20200001 12813963
0.012237174 0.012565318 0.20200001 16769252
0.013187071 0.012565318 0.20200001 13410727
0.014136969 0.012565318 0.20200001 9859197
0.015086867 0.012565318 0.20200001 11241103
0.016036766 0.012565318 0.20200001 14265784
0.016986661 0.012565318 0.20200001 12815258
0.017936559 0.012565318 0.20200001 13603227
0.018886456 0.012565318 0.20200001 15511476
0.019836355 0.012565318 0.20200001 15051189
0.02078625 0.012565318 0.20200001 11301506
0.021736149 0.012565318 0.20200001 16174298
0.022686046 0.012565318 0.20200001 15386583
0.023635944 0.012565318 0.20200001 13805752
0.024585839 0.012565318 0.20200001 14394027
0.025535738 0.012565318 0.20200001 13997724
0.026485635 0.012565318 0.20200001 12418438
0.027571352 0.012627522 0.20300001 11369859
0.028525952 0.012627522 0.20300001 16775671
0.029480552 0.012627522 0.20300001 16775673
0.03043515 0.012627522 0.20300001 14660281
0.031389751 0.012627522 0.20300001 15377070
0.032185018 0.012565318 0.20200001 12746374
0.033298951 0.012627522 0.20300001 13141645
0.034253553 0.012627522 0.20300001 11826816
0.035208151 0.012627522 0.20300001 13871024
0.035984609 0.012565318 0.20200001 16774647
0.036934502 0.012565318 0.20200001 13345700
0.037884403 0.012565318 0.20200001 12088955
0.0388343 0.012565318 0.20200001 12416119
0.039784197 0.012565318 0.20200001 11955311
0.040734094 0.012565318 0.20200001 12086897
0.041683994 0.012565318 0.20200001 11494760
0.042633891 0.012565318 0.20200001 11363431
0.043583788 0.012565318 0.20200001 11102314
0.044533681 0.012565318 0.20200001 12945801
0.045483582 0.012565318 0.20200001 12948627
0.046433479 0.012565318 0.20200001 3480863
0.047383375 0.012565318 0.20200001 2696486
-0.016018264 0.013314495 0.19900002 11176330
-0.015158265 0.013381401 0.2 11893627
-0.01428886 0.013448308 0.20100001 12878210
-0.013343666 0.013448308 0.20100001 12284276
-0.012398471 0.013448308 0.20100001 13530491
-0.011453277 0.013448308 0.20100001 12017252
-0.010508081 0.013448308 0.20100001 12281705
-0.0095628873 0.013448308 0.20100001 11954793
-0.0086176917 0.013448308 0.20100001 12020586
-0.0076724971 0.013448308 0.20100001 11955309
-0.006727302 0.013448308 0.20100001 12679289
-0.0057821069 0.013448308 0.20100001 11823984
-0.0048369123 0.013448308 0.20100001 10706271
-0.0038917174 0.013448308 0.20100001 11034466
-0.0029465226 0.013448308 0.20100001 10443871
-0.0020013277 0.013448308 0.20100001 11496557
-0.001056133 0.013448308 0.20100001 11627371
-0.0001109381 0.013448308 0.20100001 11823980
0.0008342567 0.013448308 0.20100001 12021361
0.0017794516 0.013448308 0.20100001 13205637
0.0027246466 0.013448308 0.20100001 12481914
0.0036698412 0.013448308 0.20100001 12811395
0.0046150358 0.013448308 0.20100001 12025731
0.0055602309 0.013448308 0.20100001 13078682
0.006505426 0.013448308 0.20100001 11826814
0.0074506206 0.013448308 0.20100001 12285823
0.008437586 0.013515215 0.20200001 12220030
0.0093874829 0.013515215 0.20200001 12022651
0.01033738 0.013515215 0.20200001 11496820
0.011287278 0.013515215 0.20200001 10840173
0.012237174 0.013515215 0.20200001 9853538
0.013187071 0.013515215 0.20200001 9066338
0.014136969 0.013515215 0.20200001 9726067
0.015086867 0.013515215 0.20200001 10119540
0.016036766 0.013515215 0.20200001 10116198
0.016986661 0.013515215 0.20200001 10312546
0.017936559 0.013515215 0.20200001 10707304
0.018886456 0.013515215 0.20200001 11497853
0.019836355 0.013515215 0.20200001 11103104
0.02078625 0.013515215 0.20200001 13211048
0.021736149 0.013515215 0.20200001 8345962
0.022686046 0.013515215 0.20200001 11437979
0.023635944 0.013515215 0.20200001 9001061
0.024585839 0.013515215 0.20200001 9984610
0.025535738 0.013515215 0.20200001 10246753
0.026485635 0.013515215 0.20200001 11102062
0.027435534 0.013515215 0.20200001 10050919
0.028385431 0.013515215 0.20200001 16768486
0.029480552 0.013582123 0.20300001 13213094
0.03043515 0.013582123 0.20300001 13141645
0.031389751 0.013582123 0.20300001 12416891
0.032185018 0.013515215 0.20200001 11035754
0.033134915 0.013515215 0.20200001 10379109
0.034084816 0.013515215 0.20200001 8998231
0.035208151 0.013582123 0.20300001 7881551
0.035984609 0.013515215 0.20200001 9198440
0.036934502 0.013515215 0.20200001 7552586
0.037884403 0.013515215 0.20200001 8800077
0.0388343 0.013515215 0.20200001 9257798
0.039784197 0.013515215 0.20200001 9257026
0.040734094 0.013515215 0.20200001 9849935
0.041683994 0.013515215 0.20200001 10771037
0.042633891 0.013515215 0.20200001 10507865
0.043583788 0.013515215 0.20200001 10114906
0.044533681 0.013515215 0.20200001 10971244
0.045483582 0.013515215 0.20200001 13671839
0.046433479 0.013515215 0.20200001 5517880
0.047383375 0.013515215 0.20200001 2563619
-0.016018264 0.014250285 0.19900002 11438732
-0.015158265 0.014321893 0.2 12484483
-0.01428886 0.014393503 0.20100001 12153717
-0.013343666 0.014393503 0.20100001 13468032
-0.012398471 0.014393503 0.20100001 11886690
-0.011453277 0.014393503 0.20100001 12939635
-0.010508081 0.014393503 0.20100001 13137784
-0.0095628873 0.014393503 0.20100001 12612210
-0.0086176917 0.014393503 0.20100001 12283758
-0.0076724971 0.014393503 0.20100001 11363172
-0.006727302 0.014393503 0.20100001 10442327
-0.0057821069 0.014393503 0.20100001 10573915
-0.0048369123 0.014393503 0.20100001 9587020
-0.0038917174 0.014393503 0.20100001 8994883
-0.0029465226 0.014393503 0.20100001 9192780
-0.0020013277 0.014393503 0.20100001 11627893
-0.001056133 0.014393503 0.20100001 9654355
-0.0001109381 0.014393503 0.20100001 9785169
0.0008342567 0.014393503 0.20100001 10048339
0.0017794516 0.014393503 0.20100001 9982550
0.0027246466 0.014393503 0.20100001 9983066
0.0036698412 0.014393503 0.20100001 9589593
0.0046150358 0.014393503 0.20100001 9789032
0.0055602309 0.014393503 0.20100001 10710132
0.006505426 0.014393503 0.20100001 10774380
0.0074506206 0.014393503 0.20100001 11233648
0.008437586 0.014465113 0.20200001 11233133
0.0093874829 0.014465113 0.20200001 11496305
0.01033738 0.014465113 0.20200001 10839658
0.011287278 0.014465113 0.20200001 12552075
0.012237174 0.014465113 0.20200001 15711422
0.013187071 0.014465113 0.20200001 10121077
0.014136969 0.014465113 0.20200001 12293275
0.015086867 0.014465113 0.20200001 10974076
0.016036766 0.014465113 0.20200001 10510954
0.016986661 0.014465113 0.20200001 12024447
0.017936559 0.014465113 0.20200001 9918558
0.018886456 0.014465113 0.20200001 10117745
0.019836355 0.014465113 0.20200001 16766954
0.02078625 0.014465113 0.20200001 16765154
0.021736149 0.014465113 0.20200001 15716061
0.022686046 0.014465113 0.20200001 11636378
0.023635944 0.014465113 0.20200001 10908283
0.024585839 0.014465113 0.20200001 11826301
0.025535738 0.014465113 0.20200001 13010829
0.026485635 0.014465113 0.20200001 11760760
0.027435534 0.014465113 0.20200001 8866897
0.028385431 0.014465113 0.20200001 7224388
0.029335327 0.014465113 0.20200001 6041144
0.03043515 0.014536723 0.20300001 6696759
0.031389751 0.014536723 0.20300001 6499632
0.032185018 0.014465113 0.20200001 7419197
0.033134915 0.014465113 0.20200001 4919835
0.034084816 0.014465113 0.20200001 5051932
0.035208151 0.014536723 0.20300001 4721684
0.035984609 0.014465113 0.20200001 6037548
0.036934502 0.014465113 0.20200001 8866647
0.037884403 0.014465113 0.20200001 9917786
0.0388343 0.014465113 0.20200001 12218738
0.039784197 0.014465113 0.20200001 12613239
0.040734094 0.014465113 0.20200001 12416117
0.041683994 0.014465113 0.20200001 11693166
0.042633891 0.014465113 0.20200001 12877958
0.043583788 0.014465113 0.20200001 12352899
0.044533681 0.014465113 0.20200001 13208719
0.045483582 0.014465113 0.20200001 14132390
0.046433479 0.014465113 0.20200001 6767949
0.047383375 0.014465113 0.20200001 2497828
-0.016018264 0.015186075 0.19900002 11042177
-0.015158265 0.015262387 0.2 12220541
-0.01428886 0.015338698 0.20100001 12483200
-0.013343666 0.015338698 0.20100001 13139842
-0.012398471 0.015338698 0.20100001 12019819
-0.011453277 0.015338698 0.20100001 12611186
-0.010508081 0.015338698 0.20100001 12742002
-0.0095628873 0.015338698 0.20100001 11756131
-0.0086176917 0.015338698 0.20100001 11691108
-0.0076724971 0.015338698 0.20100001 11362143
-0.006727302 0.015338698 0.20100001 11495019
-0.0057821069 0.015338698 0.20100001 11034734
-0.0048369123 0.015338698 0.20100001 10706791
-0.0038917174 0.015338698 0.20100001 11168107
-0.0029465226 0.015338698 0.20100001 10247521
-0.0020013277 0.015338698 0.20100001 12221059
-0.001056133 0.015338698 0.20100001 11629176
-0.0001109381 0.015338698 0.20100001 11167594
0.0008342567 0.015338698 0.20100001 9785941
0.0017794516 0.015338698 0.20100001 10641250
0.0027246466 0.015338698 0.20100001 16763339
0.0036698412 0.015338698 0.20100001 15712969
0.0046150358 0.015338698 0.20100001 14462648
0.0055602309 0.015338698 0.20100001 12356242
0.006505426 0.015338698 0.20100001 13341337
0.0074506206 0.015338698 0.20100001 13274514
0.008437586 0.015415011 0.20200001 13668241
0.0093874829 0.015415011 0.20200001 13668241
0.01033738 0.015415011 0.20200001 12352897
0.011287278 0.015415011 0.20200001 14460070
0.012237174 0.015415011 0.20200001 16172232
0.013187071 0.015415011 0.20200001 12160658
0.014136969 0.015415011 0.20200001 12358039
0.015086867 0.015415011 0.20200001 12947094
0.016036766 0.015415011 0.20200001 13472153
0.016986661 0.015415011 0.20200001 13472153
0.017936559 0.015415011 0.20200001 12616846
0.018886456 0.015415011 0.20200001 14658745
0.019836355 0.015415011 0.20200001 15909075
0.02078625 0.015415011 0.20200001 16569058
0.021736149 0.015415011 0.20200001 13741756
0.022686046 0.015415011 0.20200001 11502478
0.023635944 0.015415011 0.20200001 13866399
0.024585839 0.015415011 0.20200001 16167869
0.025535738 0.015415011 0.20200001 15181744
0.026616752 0.015491323 0.20300001 13340567
0.027571352 0.015491323 0.20300001 16773620
0.028525952 0.015491323 0.20300001 16773874
0.029480552 0.015491323 0.20300001 15449795
0.03043515 0.015491323 0.20300001 8340299
0.031389751 0.015491323 0.20300001 9130069
0.032185018 0.015415011 0.20200001 9853278
0.033298951 0.015491323 0.20300001 9590620
0.034253553 0.015491323 0.20300001 9722976
0.035208151 0.015491323 0.20300001 10051941
0.035984609 0.015415011 0.20200001 12880786
0.036934502 0.015415011 0.20200001 14722222
0.037884403 0.015415011 0.20200001 11366517
0.0388343 0.015415011 0.20200001 12022901
0.039784197 0.015415011 0.20200001 12548473
0.040734094 0.015415011 0.20200001 12548475
0.041683994 0.015415011 0.20200001 12285305
0.042633891 0.015415011 0.20200001 13930646
0.043583788 0.015415011 0.20200001 14983847
0.044533681 0.015415011 0.20200001 14919078
0.045483582 0.015415011 0.20200001 14197413
0.046433479 0.015415011 0.20200001 4728626
0.047383375 0.015415011 0.20200001 3221549
-0.016018264 0.016121866 0.19900002 12161430
-0.015158265 0.01620288 0.2 13669786
-0.01428886 0.016283894 0.20100001 12877960
-0.013343666 0.016283894 0.20100001 13008774
-0.012398471 0.016283894 0.20100001 13205380
-0.011453277 0.016283894 0.20100001 13073024
-0.010508081 0.016283894 0.20100001 13862538
-0.0095628873 0.016283894 0.20100001 13994122
-0.0086176917 0.016283894 0.20100001 12086897
-0.0076724971 0.016283894 0.20100001 12021363
-0.006727302 0.016283894 0.20100001 11693947
-0.0057821069 0.016283894 0.20100001 16765919
-0.0048369123 0.016283894 0.20100001 16764633
-0.0038917174 0.016283894 0.20100001 12222858
-0.0029465226 0.016283894 0.20100001 11301504
-0.0020013277 0.016283894 0.20100001 14064040
-0.001056133 0.016283894 0.20100001 12813709
-0.0001109381 0.016283894 0.20100001 14260124
0.0008342567 0.016283894 0.20100001 13536655
0.0017794516 0.016283894 0.20100001 13208206
0.0027246466 0.016283894 0.20100001 16697032
0.0036698412 0.016283894 0.20100001 15843783
0.0046150358 0.016283894 0.20100001 13148071
0.0055602309 0.016283894 0.20100001 13211551
0.006505426 0.016283894 0.20100001 13670556
0.0074506206 0.016283894 0.20100001 13275028
0.008437586 0.016364908 0.20200001 13273999
0.0093874829 0.016364908 0.20200001 13865366
0.01033738 0.016364908 0.20200001 12945034
0.011287278 0.016364908 0.20200001 16765911
0.012237174 0.016364908 0.20200001 16501711
0.013187071 0.016364908 0.20200001 11766670
0.014136969 0.016364908 0.20200001 11634312
0.015086867 0.016364908 0.20200001 13011856
0.016036766 0.016364908 0.20200001 14129310
0.016986661 0.016364908 0.20200001 13931931
0.017936559 0.016364908 0.20200001 13011088
0.018886456 0.016364908 0.20200001 16764375
0.019836355 0.016364908 0.20200001 16040910
0.02078625 0.016364908 0.20200001 16769512
0.021736149 0.016364908 0.20200001 14135481
0.022686046 0.016364908 0.20200001 11367810
0.023635944 0.016364908 0.20200001 14194851
0.024585839 0.016364908 0.20200001 16102330
0.025535738 0.016364908 0.20200001 16760004
0.026485635 0.016364908 0.20200001 15380924
0.027435534 0.016364908 0.20200001 16775419
0.028385431 0.016364908 0.20200001 16776187
0.029335327 0.016364908 0.20200001 16771823
0.030285222 0.016364908 0.20200001 11695228
0.031389751 0.016445924 0.20300001 12156033
0.032185018 0.016364908 0.20200001 11563896
0.033298951 0.016445924 0.20300001 10971759
0.034253553 0.016445924 0.20300001 10643308
0.035208151 0.016445924 0.20300001 15578812
0.035984609 0.016364908 0.20200001 15184826
0.036934502 0.016364908 0.20200001 16772849
0.037884403 0.016364908 0.20200001 16773364
0.0388343 0.016364908 0.20200001 13669011
0.039784197 0.016364908 0.20200001 13140614
0.040734094 0.016364908 0.20200001 14455704
0.041683994 0.016364908 0.20200001 14455704
0.042633891 0.016364908 0.20200001 15113634
0.043583788 0.016364908 0.20200001 15246760
0.044533681 0.016364908 0.20200001 15248043
0.045483582 0.016364908 0.20200001 12553358
0.046433479 0.016364908 0.20200001 3546919
0.047383375 0.016364908 0.20200001 2432803
-0.016018264 0.017057655 0.19900002 7161423
-0.015158265 0.017143371 0.2 13933728
-0.01428886 0.017229088 0.20100001 13472145
-0.013343666 0.017229088 0.20100001 13075337
-0.012398471 0.017229088 0.20100001 13403016
-0.011453277 0.017229088 0.20100001 16362674
-0.010508081 0.017229088 0.20100001 16362674
-0.0095628873 0.017229088 0.20100001 16166065
-0.0086176917 0.017229088 0.20100001 15574953
-0.0076724971 0.017229088 0.20100001 14523037
-0.006727302 0.017229088 0.20100001 15050160
-0.0057821069 0.017229088 0.20100001 16766432
-0.0048369123 0.017229088 0.20100001 16764890
-0.0038917174 0.017229088 0.20100001 16766432
-0.0029465226 0.017229088 0.20100001 14197933
-0.0020013277 0.017229088 0.20100001 13934507
-0.001056133 0.017229088 0.20100001 14656427
-0.0001109381 0.017229088 0.20100001 14522783
0.0008342567 0.017229088 0.20100001 14457503
0.0017794516 0.017229088 0.20100001 16103873
0.0027246466 0.017229088 0.20100001 16766683
0.0036698412 0.017229088 0.20100001 16767712
0.0046150358 0.017229088 0.20100001 13148838
0.0055602309 0.017229088 0.20100001 14067372
0.006505426 0.017229088 0.20100001 14723242
0.0074876887 0.017314805 0.20200001 14919851
0.008437586 0.017314805 0.20200001 15051177
0.0093874829 0.017314805 0.20200001 14393247
0.01033738 0.017314805 0.20200001 13932442
0.011287278 0.017314805 0.20200001 13866649
0.012237174 0.017314805 0.20200001 12816789
0.013187071 0.017314805 0.20200001 11436422
0.014136969 0.017314805 0.20200001 13343387
0.015086867 0.017314805 0.20200001 13932958
0.016036766 0.017314805 0.20200001 14721447
0.016986661 0.017314805 0.20200001 13076368
0.017936559 0.017314805 0.20200001 12879502
0.018886456 0.017314805 0.20200001 13078167
0.019836355 0.017314805 0.20200001 12355988
0.02078625 0.017314805 0.20200001 13674417
0.021736149 0.017314805 0.20200001 11041412
0.022686046 0.017314805 0.20200001 11893125
0.023635944 0.017314805 0.20200001 14458023
0.024585839 0.017314805 0.20200001 14391712
0.025535738 0.017314805 0.20200001 16167608
0.026485635 0.017314805 0.20200001 13737380
0.027435534 0.017314805 0.20200001 16775929
0.028385431 0.017314805 0.20200001 16776180
0.029480552 0.017400522 0.20300001 16772846
0.03043515 0.017400522 0.20300001 14393509
0.031235121 0.017314805 0.20200001 14589861
0.032185018 0.017314805 0.20200001 13800858
0.033134915 0.017314805 0.20200001 14261409
0.034084816 0.017314805 0.20200001 13471639
0.035034712 0.017314805 0.20200001 15906496
0.035984609 0.017314805 0.20200001 16764372
0.036934502 0.017314805 0.20200001 16770282
0.037884403 0.017314805 0.20200001 16768484
0.0388343 0.017314805 0.20200001 14785439
0.039784197 0.017314805 0.20200001 15310754
0.040734094 0.017314805 0.20200001 15113632
0.041683994 0.017314805 0.20200001 14785437
0.042633891 0.017314805 0.20200001 15313066
0.043583788 0.017314805 0.20200001 15051439
0.044533681 0.017314805 0.20200001 14132390
0.045483582 0.017314805 0.20200001 11108222
0.046433479 0.017314805 0.20200001 10520968
0.047383375 0.017314805 0.20200001 6841445
-0.016018264 0.017993445 0.19900002 4927280
-0.015158265 0.018083863 0.2 8409172
-0.01428886 0.018174283 0.20100001 13605015
-0.013343666 0.018174283 0.20100001 13866388
-0.012398471 0.018174283 0.20100001 14127509
-0.011453277 0.018174283 0.20100001 15245220
-0.010508081 0.018174283 0.20100001 15771307
-0.0095628873 0.018174283 0.20100001 14915998
-0.0086176917 0.018174283 0.20100001 15113632
-0.0076724971 0.018174283 0.20100001 15180195
-0.006727302 0.018174283 0.20100001 14391964
-0.0057821069 0.018174283 0.20100001 13340053
-0.0048369123 0.018174283 0.20100001 16770027
-0.0038917174 0.018174283 0.20100001 16766430
-0.0029465226 0.018174283 0.20100001 13013659
-0.0020013277 0.018174283 0.20100001 14066347
-0.001056133 0.018174283 0.20100001 14131107
-0.00011149003 0.018264702 0.20200001 15114920
0.00083840726 0.018264702 0.20200001 14785955
0.0017883047 0.018264702 0.20200001 14325917
0.002738202 0.018264702 0.20200001 13471891
0.0036880991 0.018264702 0.20200001 12619926
0.0046379967 0.018264702 0.20200001 11306119
0.005587894 0.018264702 0.20200001 12356238
0.0065377913 0.018264702 0.20200001 12552073
0.0074876887 0.018264702 0.20200001 13011854
0.008437586 0.018264702 0.20200001 12682377
0.0093874829 0.018264702 0.20200001 13866136
0.01033738 0.018264702 0.20200001 13274253
0.011287278 0.018264702 0.20200001 12945801
0.012237174 0.018264702 0.20200001 12356238
0.013187071 0.018264702 0.20200001 10975871
0.014136969 0.018264702 0.20200001 12290186
0.015086867 0.018264702 0.20200001 12024961
0.016036766 0.018264702 0.20200001 11892859
0.016986661 0.018264702 0.20200001 12221824
0.017936559 0.018264702 0.20200001 12156293
0.018886456 0.018264702 0.20200001 12551823
0.019836355 0.018264702 0.20200001 11698824
0.02078625 0.018264702 0.20200001 9529456
0.021736149 0.018264702 0.20200001 12094867
0.022686046 0.018264702 0.20200001 12289934
0.023752954 0.018355122 0.20300001 12682637
0.024707552 0.018355122 0.20300001 14589089
0.025535738 0.018264702 0.20200001 14786468
0.026485635 0.018264702 0.20200001 14589861
0.027435534 0.018264702 0.20200001 16106693
0.028525952 0.018355122 0.20300001 16106693
0.029480552 0.018355122 0.20300001 15643060
0.03043515 0.018355122 0.20300001 14261407
0.031235121 0.018264702 0.20200001 14590374
0.032185018 0.018264702 0.20200001 13800345
0.033134915 0.018264702 0.20200001 14918826
0.034084816 0.018264702 0.20200001 13076622
0.035034712 0.018264702 0.20200001 12548995
0.035984609 0.018264702 0.20200001 16365248
0.037117347 0.018355122 0.20300001 15773111
0.037884403 0.018264702 0.20200001 14128279
0.0388343 0.018264702 0.20200001 15245990
0.039784197 0.018264702 0.20200001 15113632
0.040734094 0.018264702 0.20200001 14850460
0.041683994 0.018264702 0.20200001 15246760
0.042633891 0.018264702 0.20200001 14724786
0.043583788 0.018264702 0.20200001 9268081
-0.016018264 0.018929236 0.19900002 3286566
-0.015158265 0.019024355 0.2 7691869
-0.01428886 0.019119479 0.20100001 12293264
-0.013343666 0.019119479 0.20100001 11368566
-0.012460155 0.0192146 0.20200001 12682377
-0.011510259 0.0192146 0.20200001 13272716
-0.010560361 0.0192146 0.20200001 14785439
-0.0096104639 0.0192146 0.20200001 14126737
-0.0086605661 0.0192146 0.20200001 14588060
-0.0077106687 0.0192146 0.20200001 15509162
-0.0067607709 0.0192146 0.20200001 14982818
-0.0058108736 0.0192146 0.20200001 14785439
-0.0048609762 0.0192146 0.20200001 14062232
-0.0039110789 0.0192146 0.20200001 14720675
-0.002961182 0.0192146 0.20200001 14262439
-0.0020112847 0.0192146 0.20200001 12422033
-0.0010613874 0.0192146 0.20200001 14394792
-0.00011149003 0.0192146 0.20200001 13996693
0.00084255781 0.019309722 0.20300001 13470095
0.0017971577 0.019309722 0.20300001 13470349
0.0027517574 0.019309722 0.20300001 13406352
0.0037063572 0.019309722 0.20300001 12289416
0.004660957 0.019309722 0.20300001 10711931
0.0056155566 0.019309722 0.20300001 11632519
0.0065701571 0.019309722 0.20300001 12354442
0.0075247562 0.019309722 0.20300001 12617614
0.0084793568 0.019309722 0.20300001 12681610
0.0094339559 0.019309722 0.20300001 13206925
0.010388555 0.019309722 0.20300001 13339276
0.011343156 0.019309722 0.20300001 12748422
0.012297755 0.019309722 0.20300001 11237759
0.013252354 0.019309722 0.20300001 10382964
0.014206954 0.019309722 0.20300001 11565439
0.015161554 0.019309722 0.20300001 11893375
0.016116155 0.019309722 0.20300001 12024961
0.017070753 0.019309722 0.20300001 12024447
0.018025354 0.019309722 0.20300001 11959684
0.018979954 0.019309722 0.20300001 12025990
0.019934554 0.019309722 0.20300001 11237761
0.020889154 0.019309722 0.20300001 10251378
0.021843754 0.019309722 0.20300001 11369859
0.022798354 0.019309722 0.20300001 12026760
0.023752954 0.019309722 0.20300001 11895174
0.024707552 0.019309722 0.20300001 12157063
0.025662152 0.019309722 0.20300001 13866397
0.026616752 0.019309722 0.20300001 15248050
0.027571352 0.019309722 0.20300001 15313843
0.028525952 0.019309722 0.20300001 14327202
0.029480552 0.019309722 0.20300001 14787240
0.03043515 0.019309722 0.20300001 15182511
0.031235121 0.0192146 0.20200001 14721960
0.032185018 0.0192146 0.20200001 15050671
0.033134915 0.0192146 0.20200001 15116464
0.034084816 0.0192146 0.20200001 13866138
0.035208151 0.019309722 0.20300001 14918054
0.036162753 0.019309722 0.20300001 13733267
0.037117347 0.019309722 0.20300001 13996439
0.037884403 0.0192146 0.20200001 13470862
0.0388343 0.0192146 0.20200001 14523550
0.039784197 0.0192146 0.20200001 14523296
0.040734094 0.0192146 0.20200001 12287104
0.041683994 0.0192146 0.20200001 11633029
-0.016018264 0.019865027 0.19900002 2304812
-0.015158265 0.01996485 0.2 4934220
-0.01428886 0.020064672 0.20100001 3152414
-0.013410052 0.020164497 0.20200001 10582648
-0.012460155 0.020164497 0.20200001 11566461
-0.011510259 0.020164497 0.20200001 12552073
-0.01061264 0.020264322 0.20300001 12617350
-0.0096580405 0.020264322 0.20300001 12484737
-0.0087034404 0.020264322 0.20300001 12418174
-0.0077488404 0.020264322 0.20300001 12418172
-0.0067942403 0.020264322 0.20300001 13403784
-0.0058396407 0.020264322 0.20300001 13470347
-0.0048850407 0.020264322 0.20300001 13602448
-0.0039304411 0.020264322 0.20300001 13866390
-0.0029758413 0.020264322 0.20300001 13933728
-0.0020212415 0.020264322 0.20300001 11698308
-0.0010666418 0.020264322 0.20300001 12552334
-0.00011204195 0.020264322 0.20300001 12550278
0.00084670831 0.020364147 0.20400001 12943751
0.0018060107 0.020364147 0.20400001 13010057
0.002765313 0.020364147 0.20400001 13208973
0.0037246151 0.020364147 0.20400001 13340821
0.0046839174 0.020364147 0.20400001 12025477
0.0056432197 0.020364147 0.20400001 12091270
0.0066025225 0.020364147 0.20400001 12682637
0.0075618243 0.020364147 0.20400001 12747916
0.0085211266 0.020364147 0.20400001 13010575
0.0094804289 0.020364147 0.20400001 12813450
0.01043973 0.020364147 0.20400001 12813961
0.011399033 0.020364147 0.20400001 12748682
0.012358335 0.020364147 0.20400001 12289416
0.013317637 0.020364147 0.20400001 12026760
0.014276939 0.020364147 0.20400001 11893891
0.015236243 0.020364147 0.20400001 12353672
0.016195545 0.020364147 0.20400001 12485512
0.017154846 0.020364147 0.20400001 12814477
0.01811415 0.020364147 0.20400001 12486541
0.019073451 0.020364147 0.20400001 12289162
0.020032754 0.020364147 0.20400001 12224139
0.020992056 0.020364147 0.20400001 12552334
0.021843754 0.020264322 0.20300001 11960197
0.022798354 0.020264322 0.20300001 12157830
0.023752954 0.020264322 0.20300001 11698049
0.024707552 0.020264322 0.20300001 11040894
0.025662152 0.020264322 0.20300001 11105658
0.026616752 0.020264322 0.20300001 11893891
0.027571352 0.020264322 0.20300001 11893121
0.028525952 0.020264322 0.20300001 13537946
0.029480552 0.020264322 0.20300001 12616330
0.03043515 0.020264322 0.20300001 13142674
0.031389751 0.020264322 0.20300001 12616330
0.032344349 0.020264322 0.20300001 11892607
0.033298951 0.020264322 0.20300001 12287365
0.034253553 0.020264322 0.20300001 12747916
0.035208151 0.020264322 0.20300001 12879756
0.036162753 0.020264322 0.20300001 12682375
0.037117347 0.020264322 0.20300001 12023932
0.037884403 0.020164497 0.20200001 11103857
0.0388343 0.020164497 0.20200001 10973043
0.039784197 0.020164497 0.20200001 10843253
-0.016018264 0.020800814 0.19900002 2369838
-0.015158265 0.02090534 0.2 1579036
-0.01428886 0.021009866 0.20100001 2038047
-0.013476439 0.02121892 0.20300001 7231064
-0.012521839 0.02121892 0.20300001 8082260
-0.011624222 0.021323448 0.20400001 10778744
-0.010664918 0.021323448 0.20400001 11501697
-0.0097056171 0.021323448 0.20400001 12026244
-0.0087463139 0.021323448 0.20400001 13340559
-0.007787012 0.021323448 0.20400001 13340044
-0.0068277097 0.021323448 0.20400001 13010309
-0.0058684074 0.021323448 0.20400001 12812930
-0.0049091051 0.021323448 0.20400001 12813702
-0.0039498028 0.021323448 0.20400001 12616836
-0.0029905008 0.021323448 0.20400001 11631486
-0.0020311985 0.021323448 0.20400001 10909306
-0.0010718962 0.021323448 0.20400001 12158859
-0.00011259389 0.021323448 0.20400001 12353672
0.00085085887 0.021427974 0.20500001 12287106
0.0018148638 0.021427974 0.20500001 13010829
0.0027788684 0.021427974 0.20500001 13208208
0.003742873 0.021427974 0.20500001 12485512
0.0047068777 0.021427974 0.20500001 12485258
0.0056708823 0.021427974 0.20500001 12551051
0.0066348878 0.021427974 0.20500001 12880270
0.0075988919 0.021427974 0.20500001 12879756
0.0085628973 0.021427974 0.20500001 13208721
0.0095269019 0.021427974 0.20500001 13406100
0.010490905 0.021427974 0.20500001 12484998
0.011454911 0.021427974 0.20500001 12221824
0.012418916 0.021427974 0.20500001 12881038
0.01338292 0.021427974 0.20500001 13078417
0.014346925 0.021427974 0.20500001 13011854
0.01531093 0.021427974 0.20500001 12551305
0.016274935 0.021427974 0.20500001 11432570
0.017238939 0.021427974 0.20500001 12814223
0.018202944 0.021427974 0.20500001 12881299
0.019166948 0.021427974 0.20500001 12354955
0.020130955 0.021427974 0.20500001 12553104
0.021094957 0.021427974 0.20500001 12091785
0.021951359 0.021323448 0.20400001 11565441
0.02291066 0.021323448 0.20400001 12025990
0.023869963 0.021323448 0.20400001 12158600
0.024829265 0.021323448 0.20400001 11633799
0.025788568 0.021323448 0.20400001 10843515
0.026747869 0.021323448 0.20400001 11434623
0.027707173 0.021323448 0.20400001 11697279
0.028666476 0.021323448 0.20400001 11630973
0.029625777 0.021323448 0.20400001 11433594
0.030585077 0.021323448 0.20400001 11695996
0.03154438 0.021323448 0.20400001 12419205
0.032503683 0.021323448 0.20400001 12090754
0.033462986 0.021323448 0.20400001 11893375
0.03442229 0.021323448 0.20400001 11828611
0.035381589 0.021323448 0.20400001 11961221
0.036162753 0.02121892 0.20300001 12027014
0.037117347 0.02121892 0.20300001 12289416
0.037884403 0.021114394 0.20200001 11171964
0.0388343 0.021114394 0.20200001 10911361
-0.01593777 0.021627376 0.19800001 2830643
-0.015158265 0.021845832 0.2 2828849
-0.01435995 0.022064291 0.20200001 2303529
-0.013542825 0.022282749 0.20400001 2366240
-0.012768575 0.022610439 0.20700002 8085344
-0.011681203 0.022391981 0.20500001 9660522
-0.010769477 0.02250121 0.20600002 11305347
-0.0097531937 0.022391981 0.20500001 11173502
-0.0087891882 0.022391981 0.20500001 12683920
-0.0078251837 0.022391981 0.20500001 12946831
-0.0068611787 0.022391981 0.20500001 13603729
-0.0058971741 0.022391981 0.20500001 13669522
-0.0049331691 0.022391981 0.20500001 13537423
-0.0039691646 0.022391981 0.20500001 13275280
-0.00300516 0.022391981 0.20500001 13145241
-0.0020411552 0.022391981 0.20500001 10843515
-0.0010771506 0.022391981 0.20500001 12289416
-0.00011369775 0.02250121 0.20600002 12222340
0.00085500942 0.02250121 0.20600002 12024447
0.0018237167 0.02250121 0.20600002 12221826
0.0027924238 0.02250121 0.20600002 12089727
0.0037611309 0.02250121 0.20600002 12287106
0.0047298381 0.02250121 0.20600002 12813196
0.0056985454 0.02250121 0.20600002 12945295
0.0066672531 0.02250121 0.20600002 13208719
0.0076359599 0.02250121 0.20600002 13471632
0.0086046671 0.02250121 0.20600002 13076874
0.0095733739 0.02250121 0.20600002 12550024
0.010542081 0.02250121 0.20600002 11892609
0.011510788 0.02250121 0.20600002 11695228
0.012479495 0.02250121 0.20600002 12156033
0.013448202 0.02250121 0.20600002 12880268
0.01441691 0.02250121 0.20600002 13275028
0.015385618 0.02250121 0.20600002 12090500
0.016354324 0.02250121 0.20600002 11366777
0.017323032 0.02250121 0.20600002 12024707
0.01829174 0.02250121 0.20600002 12353672
0.019260446 0.02250121 0.20600002 11762305
0.020229153 0.02250121 0.20600002 11894404
0.021094957 0.022391981 0.20500001 11894406
0.022058962 0.022391981 0.20500001 11565441
0.023022968 0.022391981 0.20500001 12091783
0.023986973 0.022391981 0.20500001 11829381
0.024950977 0.022391981 0.20500001 11568006
0.025914982 0.022391981 0.20500001 11568521
0.026878987 0.022391981 0.20500001 11961994
0.027842993 0.022391981 0.20500001 12026760
0.028806997 0.022391981 0.20500001 11499646
0.029771002 0.022391981 0.20500001 11236474
0.030735005 0.022391981 0.20500001 11499900
0.03154438 0.022282749 0.20400001 12353926
0.032663014 0.022391981 0.20500001 12289416
0.033627018 0.022391981 0.20500001 11565439
0.03442229 0.022282749 0.20400001 10974074
0.035381589 0.022282749 0.20400001 10974585
0.036162753 0.02217352 0.20300001 11172732
0.037117347 0.02217352 0.20300001 11305347
0.038071949 0.02217352 0.20300001 10584456
-0.014502128 0.023242053 0.20400001 2830643
-0.013675598 0.023469917 0.20600002 3026482
-0.012953627 0.023925642 0.21000001 4732729
-0.011795166 0.023583848 0.20700002 8280670
-0.010926314 0.023811711 0.20900001 9594729
-0.0098483469 0.023583848 0.20700002 11962764
-0.0088320626 0.023469917 0.20600002 11304318
-0.0078633558 0.023469917 0.20600002 11894658
-0.0068946481 0.023469917 0.20600002 12551305
-0.0059259408 0.023469917 0.20600002 13274512
-0.0049572336 0.023469917 0.20600002 13603477
-0.0039885263 0.023469917 0.20600002 13275026
-0.0030198193 0.023469917 0.20600002 12617614
-0.0020511122 0.023469917 0.20600002 11893891
-0.001082405 0.023469917 0.20600002 11761789
-0.00011424968 0.023583848 0.20700002 11630203
0.00085915992 0.023583848 0.20700002 11695482
0.0018325697 0.023583848 0.20700002 12747657
0.0028059795 0.023583848 0.20700002 13010829
0.003779389 0.023583848 0.20700002 13471378
0.0047527985 0.023583848 0.20700002 13471378
0.0057262084 0.023583848 0.20700002 12879241
0.0066996184 0.023583848 0.20700002 13010057
0.0076730275 0.023583848 0.20700002 12944264
0.0086464379 0.023583848 0.20700002 12813702
0.0096198469 0.023583848 0.20700002 12418690
0.010593256 0.023583848 0.20700002 12023934
0.011566667 0.023583848 0.20700002 12352899
0.012540076 0.023583848 0.20700002 12156033
0.013513485 0.023583848 0.20700002 12879756
0.014486895 0.023583848 0.20700002 12814477
0.015460305 0.023583848 0.20700002 12616584
0.016433716 0.023583848 0.20700002 11761275
0.017407123 0.023583848 0.20700002 11432570
0.01829174 0.023469917 0.20600002 11564156
0.019260446 0.023469917 0.20600002 11432570
0.020229153 0.023469917 0.20600002 11565439
0.021197861 0.023469917 0.20600002 11368062
0.022166567 0.023469917 0.20600002 11763588
0.023135275 0.023469917 0.20600002 11566209
0.024103982 0.023469917 0.20600002 11895687
0.025072688 0.023469917 0.20600002 12028557
0.026041396 0.023469917 0.20600002 11964564
0.027010104 0.023469917 0.20600002 11830928
0.027978811 0.023469917 0.20600002 11763592
0.028947519 0.023469917 0.20600002 11894406
0.029916227 0.023469917 0.20600002 11105660
0.030735005 0.023355985 0.20500001 11105660
0.031853639 0.023469917 0.20600002 11039867
0.032663014 0.023355985 0.20500001 12093068
0.033627018 0.023355985 0.20500001 11961482
0.034591027 0.023355985 0.20500001 10711929
0.035555031 0.023355985 0.20500001 10252148
0.036340892 0.023242053 0.20400001 10385532
0.037300192 0.023242053 0.20400001 7361882
-0.01400753 0.025031794 0.21100001 2370605
-0.013262047 0.025506331 0.215 3222317
-0.012137054 0.025269063 0.21300001 6573388
-0.01113543 0.025269063 0.21300001 7689301
-0.0098959226 0.024675891 0.208 9858673
-0.0089178104 0.024675891 0.208 11831432
-0.0079396982 0.024675891 0.208 12028041
-0.006961586 0.024675891 0.208 12093320
-0.0059547075 0.024557259 0.20700002 12486795
-0.004981298 0.024557259 0.20700002 12617868
-0.004007888 0.024557259 0.20700002 12552075
-0.0030344788 0.024557259 0.20700002 12354696
-0.0020710258 0.024675891 0.208 12353926
-0.0010929137 0.024675891 0.208 12551305
-0.00011480161 0.024675891 0.208 11827582
0.00086331042 0.024675891 0.208 13274260
0.0018414226 0.024675891 0.208 13340307
0.0028195346 0.024675891 0.208 13406100
0.0037976466 0.024675891 0.208 13209235
0.0047757588 0.024675891 0.208 13077647
0.0057538706 0.024675891 0.208 12682889
0.0067319833 0.024675891 0.208 12813450
0.007710095 0.024675891 0.208 12550278
0.0086882077 0.024675891 0.208 12484998
0.009666319 0.024675891 0.208 12879754
0.010644431 0.024675891 0.208 12748168
0.011622543 0.024675891 0.208 12418690
0.012600655 0.024675891 0.208 12221311
0.013578767 0.024675891 0.208 11958139
0.014556879 0.024675891 0.208 12156033
0.015534991 0.024675891 0.208 12484998
0.016513104 0.024675891 0.208 12879756
0.017491216 0.024675891 0.208 12156033
0.018469328 0.024675891 0.208 11893375
0.019353945 0.024557259 0.20700002 12091524
0.020327354 0.024557259 0.20700002 12157830
0.021300763 0.024557259 0.20700002 11698049
0.022274172 0.024557259 0.20700002 11829635
0.023247583 0.024557259 0.20700002 11237498
0.024220992 0.024557259 0.20700002 11368830
0.025194401 0.024557259 0.20700002 11961994
0.026041396 0.024438625 0.20600002 12161430
0.027010104 0.024438625 0.20600002 12094867
0.027978811 0.024438625 0.20600002 11303039
0.028947519 0.024438625 0.20600002 11303037
0.029916227 0.024438625 0.20600002 11566209
0.030884931 0.024438625 0.20600002 11500929
0.031853639 0.024438625 0.20600002 11237759
0.032822348 0.024438625 0.20600002 10974585
0.033791054 0.024438625 0.20600002 10909306
0.034759764 0.024438625 0.20600002 10647419
0.035555031 0.02431999 0.20500001 9202542
-0.014737781 0.027380716 0.22200002 1778468
-0.013508783 0.027010705 0.21900001 2105378
-0.012592907 0.027257379 0.22100002 5127485
-0.011344546 0.026764031 0.21700001 6243138
-0.010086229 0.026147349 0.21200001 8873573
-0.0089178104 0.025654003 0.208 9859184
-0.0079396982 0.025654003 0.208 11107968
-0.0069950554 0.025777338 0.20900001 11897225
-0.0060122409 0.025777338 0.20900001 11831432
-0.005029426 0.025777338 0.20900001 12028041
-0.0040466115 0.025777338 0.20900001 13145495
-0.0030637973 0.025777338 0.20900001 12684174
-0.0020809826 0.025777338 0.20900001 12618381
-0.0010981681 0.025777338 0.20900001 12091524
-0.00011535354 0.025777338 0.20900001 12552075
0.00086746097 0.025777338 0.20900001 12552075
0.0018502757 0.025777338 0.20900001 12880270
0.0028330903 0.025777338 0.20900001 12880270
0.0038159045 0.025777338 0.20900001 12683661
0.0047987192 0.025777338 0.20900001 11960451
0.0057815337 0.025777338 0.20900001 12157830
0.0067643486 0.025777338 0.20900001 12025477
0.0077471626 0.025777338 0.20900001 11433340
0.0087299775 0.025777338 0.20900001 11827328
0.009712792 0.025777338 0.20900001 11892607
0.010695606 0.025777338 0.20900001 12813709
0.011678421 0.025777338 0.20900001 13011342
0.012661235 0.025777338 0.20900001 12748170
0.013644049 0.025777338 0.20900001 12419205
0.014626864 0.025777338 0.20900001 11433594
0.01560968 0.025777338 0.20900001 12223110
0.016592495 0.025777338 0.20900001 12683661
0.017575307 0.025777338 0.20900001 12617868
0.018558122 0.025777338 0.20900001 12486282
0.019540938 0.025777338 0.20900001 12684174
0.020523753 0.025777338 0.20900001 12487565
0.021506567 0.025777338 0.20900001 11763842
0.022381775 0.025654003 0.208 11763842
0.023359889 0.025654003 0.208 11303291
0.024220992 0.025530668 0.20700002 11369084
0.025194401 0.025530668 0.20700002 11829894
0.026167812 0.025530668 0.20700002 10910591
0.027010104 0.025407331 0.20600002 12753313
0.027978811 0.025407331 0.20600002 11370629
0.028947519 0.025407331 0.20600002 11698822
0.029916227 0.025407331 0.20600002 11698308
0.030884931 0.025407331 0.20600002 11632515
0.031853639 0.025407331 0.20600002 11632515
0.032822348 0.025407331 0.20600002 11369857
0.033791054 0.025407331 0.20600002 10319226
0.034759764 0.025407331 0.20600002 8281699
0.035728469 0.025407331 0.20600002 6246228
-0.01363215 0.028296622 0.22100002 2238504
-0.012649888 0.028424662 0.22200002 2696488
-0.011449104 0.028040543 0.21900001 6245196
-0.010181382 0.027400348 0.21400002 7295828
-0.0091321813 0.02727231 0.21300001 9729397
-0.0080160415 0.026888192 0.21000001 9663602
-0.0070285243 0.026888192 0.21000001 10714493
-0.0060410076 0.026888192 0.21000001 10517116
-0.0050534904 0.026888192 0.21000001 10713982
-0.0040659732 0.026888192 0.21000001 11304066
-0.0030784565 0.026888192 0.21000001 12356238
-0.0020909396 0.026888192 0.21000001 11961480
-0.0011034225 0.026888192 0.21000001 11895174
-0.00011590547 0.026888192 0.21000001 12683920
0.00087161153 0.026888192 0.21000001 13144212
0.0018591286 0.026888192 0.21000001 12091524
0.0028466457 0.026888192 0.21000001 11959938
0.0038341626 0.026888192 0.21000001 11828865
0.0048216796 0.026888192 0.21000001 11434623
0.0058091967 0.026888192 0.21000001 11170681
0.0067967139 0.026888192 0.21000001 11301754
0.0077842306 0.026888192 0.21000001 12353158
0.0087717483 0.026888192 0.21000001 12353158
0.009759265 0.026888192 0.21000001 12353672
0.010746782 0.026888192 0.21000001 12024707
0.011734298 0.026888192 0.21000001 12090500
0.012721815 0.026888192 0.21000001 12090754
0.013709332 0.026888192 0.21000001 11827582
0.01469685 0.026888192 0.21000001 12749452
0.015684366 0.026888192 0.21000001 12026244
0.016671885 0.026888192 0.21000001 11499387
0.0176594 0.026888192 0.21000001 12223110
0.018646918 0.026888192 0.21000001 12157830
0.019634435 0.026888192 0.21000001 12092037
0.020621952 0.026888192 0.21000001 11763842
0.021609468 0.026888192 0.21000001 11434877
0.02248938 0.026760152 0.20900001 11369084
0.023472195 0.026760152 0.20900001 11369084
0.024338001 0.026632113 0.208 11303291
0.025316112 0.026632113 0.208 11632769
0.026167812 0.026504075 0.20700002 11831693
0.027010104 0.026376037 0.20600002 13017252
0.027978811 0.026376037 0.20600002 11240328
0.028947519 0.026376037 0.20600002 11107457
0.029916227 0.026376037 0.20600002 10975871
0.030884931 0.026376037 0.20600002 9988976
0.031853639 0.026376037 0.20600002 9528938
-0.010752301 0.029999573 0.22600001 5653578
-0.0091750557 0.028406676 0.21400002 6704204
-0.0080160415 0.027875708 0.21000001 9730678
-0.0070619937 0.02800845 0.21100001 9598579
-0.0060697743 0.02800845 0.21100001 10913158
-0.0050775548 0.02800845 0.21100001 11043974
-0.0040853354 0.02800845 0.21100001 11240839
-0.003093116 0.02800845 0.21100001 11765900
-0.0021008963 0.02800845 0.21100001 11962764
-0.0011086769 0.02800845 0.21100001 11698308
-0.00011645741 0.02800845 0.21100001 11697795
0.00087576202 0.02800845 0.21100001 11763588
0.0018679816 0.02800845 0.21100001 11698049
0.0028602011 0.02800845 0.21100001 11763842
0.0038524205 0.02800845 0.21100001 11698049
0.0048446399 0.02800845 0.21100001 11500670
0.0058368593 0.02800845 0.21100001 11040119
0.0068290792 0.02800845 0.21100001 12552073
0.0078212982 0.02800845 0.21100001 12091522
0.0088135181 0.02800845 0.21100001 11828865
0.0098057371 0.02800845 0.21100001 11894658
0.010797957 0.02800845 0.21100001 11697025
0.011790177 0.02800845 0.21100001 11697025
0.012782396 0.02800845 0.21100001 11894658
0.013774615 0.02800845 0.21100001 11697279
0.014766835 0.02800845 0.21100001 11763842
0.015759055 0.02800845 0.21100001 12158346
0.016751274 0.02800845 0.21100001 11895428
0.017743492 0.02800845 0.21100001 12224393
0.018735712 0.02800845 0.21100001 11895941
0.019727932 0.02800845 0.21100001 11962248
0.020720152 0.02800845 0.21100001 11633283
0.02171237 0.02800845 0.21100001 11830148
0.022596985 0.027875708 0.21000001 10842999
0.023472195 0.027742967 0.20900001 11172732
0.024455011 0.027742967 0.20900001 11040632
0.025316112 0.027610226 0.208 10449009
0.026167812 0.027477486 0.20700002 10186355
0.027010104 0.027344745 0.20600002 10714243
0.027978811 0.027344745 0.20600002 10780038
0.028947519 0.027344745 0.20600002 10384765
0.029916227 0.027344745 0.20600002 9661296
0.030884931 0.027344745 0.20600002 8938600
-0.0092608025 0.029687889 0.21600001 4732476
-0.0070619937 0.02900067 0.21100001 9599864
-0.0060697743 0.02900067 0.21100001 9861751
-0.0050775548 0.02900067 0.21100001 10518398
-0.0041046971 0.029138114 0.21200001 10978181
-0.0031077752 0.029138114 0.21200001 11175046
-0.0021108533 0.029138114 0.21200001 11240839
-0.0011139313 0.029138114 0.21200001 11173761
-0.00011700934 0.029138114 0.21200001 11107968
0.00087991258 0.029138114 0.21200001 11633801
0.0018768347 0.029138114 0.21200001 11633801
0.0028737567 0.029138114 0.21200001 11633799
0.0038706784 0.029138114 0.21200001 11764615
0.0048676003 0.029138114 0.21200001 11370111
0.0058645224 0.029138114 0.21200001 11304318
0.0068614446 0.029138114 0.21200001 11238011
0.0078583667 0.029138114 0.21200001 11829633
0.0088552888 0.029138114 0.21200001 11435390
0.0098522101 0.029138114 0.21200001 11501183
0.010849132 0.029138114 0.21200001 10711413
0.011846054 0.029138114 0.21200001 10448241
0.012842976 0.029138114 0.21200001 11236474
0.013839898 0.029138114 0.21200001 10710130
0.01483682 0.029138114 0.21200001 12027014
0.015833743 0.029138114 0.21200001 12159113
0.016830664 0.029138114 0.21200001 11304318
0.017827585 0.029138114 0.21200001 11567490
0.018824508 0.029138114 0.21200001 11173248
0.01982143 0.029138114 0.21200001 11041662
0.020818353 0.029138114 0.21200001 10976382
0.02171237 0.02900067 0.21100001 11042175
0.022596985 0.028863227 0.21000001 11107455
0.023584504 0.028863227 0.21000001 11107455
0.024455011 0.028725782 0.20900001 10121075
0.025316112 0.028588338 0.208 10055282
0.026167812 0.028450895 0.20700002 9661294
0.027010104 0.028313452 0.20600002 9465460
0.027978811 0.028313452 0.20600002 11111317
0.028947519 0.028313452 0.20600002 8282731
0.029916227 0.028313452 0.20600002 8414317
0.030884931 0.028313452 0.20600002 7231840
-0.0060697743 0.02999289 0.21100001 9534073
-0.0051016188 0.030135037 0.21200001 10651269
-0.0041046971 0.030135037 0.21200001 11506578
-0.0031224345 0.030277183 0.21300001 11571601
-0.0021208101 0.030277183 0.21300001 11110537
-0.0011191857 0.030277183 0.21300001 11175560
-0.00011756127 0.030277183 0.21300001 11569804
0.00088406313 0.030277183 0.21300001 11569804
0.0018856877 0.030277183 0.21300001 11438218
0.0028873121 0.030277183 0.21300001 11306119
0.0038889365 0.030277183 0.21300001 11042177
0.0048905606 0.030277183 0.21300001 11107968
0.0058645224 0.030135037 0.21200001 10778490
0.0068938099 0.030277183 0.21300001 10777974
0.0078954343 0.030277183 0.21300001 10843253
0.0088970587 0.030277183 0.21300001 10711667
0.0098986831 0.030277183 0.21300001 11172218
0.010900307 0.030277183 0.21300001 11961994
0.011901932 0.030277183 0.21300001 11633029
0.012903556 0.030277183 0.21300001 11106687
0.01390518 0.030277183 0.21300001 11698824
0.014906805 0.030277183 0.21300001 11764615
0.015908429 0.030277183 0.21300001 10777720
0.016910054 0.030277183 0.21300001 10186355
0.017911678 0.030277183 0.21300001 9791595
0.018913303 0.030277183 0.21300001 9857388
0.019914927 0.030277183 0.21300001 10054767
0.020818353 0.030135037 0.21200001 9726317
0.021815274 0.030135037 0.21200001 9068135
0.02270459 0.02999289 0.21100001 9002596
0.023584504 0.029850744 0.21000001 9134950
0.024455011 0.029708598 0.20900001 9003364
0.025316112 0.02956645 0.208 8938086
0.026167812 0.029424306 0.20700002 8873577
0.027010104 0.02928216 0.20600002 8348777
0.027978811 0.02928216 0.20600002 9338249
0.028806997 0.029140012 0.20500001 4866124
-0.0051016188 0.03113196 0.21200001 4929085
-0.0041046971 0.03113196 0.21200001 8020329
-0.0031224345 0.031278808 0.21300001 10455175
-0.0021208101 0.031278808 0.21300001 11309712
