# .PCD v0.7 - Point Cloud Data file format
VERSION 0.7
FIELDS x y z rgb
SIZE 4 4 4 4
TYPE F F F U
COUNT 1 1 1 1
WIDTH 1099
HEIGHT 1
VIEWPOINT 0 0 0 1 0 0 0
POINTS 1099
DATA ascii
0.0074768709 0.0052424292 0.17900001 13933208
0.0083186114 0.0052424292 0.17900001 13735829
0.0091603519 0.0052424292 0.17900001 14195866
0.010002092 0.0052424292 0.17900001 13866903
0.010843833 0.0052424292 0.17900001 14065314
0.011685573 0.0052424292 0.17900001 15711422
0.012527314 0.0052424292 0.17900001 13804970
0.013369055 0.0052424292 0.17900001 11240328
0.014210797 0.0052424292 0.17900001 12817303
0.015052537 0.0052424292 0.17900001 13538198
0.015805483 0.0052131414 0.178 13866903
0.016736018 0.0052424292 0.17900001 13734804
0.01757776 0.0052424292 0.17900001 11826553
0.018419499 0.0052424292 0.17900001 13208206
0.019261241 0.0052424292 0.17900001 12485510
0.020102981 0.0052424292 0.17900001 11697795
0.020944722 0.0052424292 0.17900001 11570320
0.021786463 0.0052424292 0.17900001 9925241
0.022628203 0.0052424292 0.17900001 10909046
0.023469944 0.0052424292 0.17900001 11958652
0.024311684 0.0052424292 0.17900001 14589089
0.025153426 0.0052424292 0.17900001 15837873
0.025849942 0.0052131414 0.178 14785187
0.026686978 0.0052131414 0.178 16365250
0.027524017 0.0052131414 0.178 14657714
0.028361056 0.0052131414 0.178 16772338
0.029198093 0.0052131414 0.178 16373725
0.030035133 0.0052131414 0.178 16771828
0.030872172 0.0052131414 0.178 13933987
0.031709209 0.0052131414 0.178 13735579
0.032546245 0.0052131414 0.178 13077649
0.033383284 0.0052131414 0.178 13275026
0.034220323 0.0052131414 0.178 14130335
0.035057362 0.0052131414 0.178 12156547
0.035894401 0.0052131414 0.178 15908031
0.036731437 0.0052131414 0.178 15182771
0.037568476 0.0052131414 0.178 12747655
0.038405515 0.0052131414 0.178 13667474
0.039242551 0.0052131414 0.178 13996952
0.039854422 0.0051838541 0.177 14062999
0.04068676 0.0051838541 0.177 13865620
0.041519094 0.0051838541 0.177 14062997
0.042351432 0.0051838541 0.177 14392732
0.043183766 0.0051838541 0.177 14459552
0.044016104 0.0051838541 0.177 13540766
0.044848438 0.0051838541 0.177 7358539
0.045680773 0.0051838541 0.177 5585471
0.046250328 0.0051545673 0.17600001 4207417
-0.016091868 0.0060841693 0.17900001 5652808
-0.015250128 0.0060841693 0.17900001 13146520
-0.014408386 0.0060841693 0.17900001 13801110
-0.013566647 0.0060841693 0.17900001 13075850
-0.012724906 0.0060841693 0.17900001 12745604
-0.011883165 0.0060841693 0.17900001 14192278
-0.011041424 0.0060841693 0.17900001 16034734
-0.010199684 0.0060841693 0.17900001 15639976
-0.0093579432 0.0060841693 0.17900001 14786207
-0.0085162027 0.0060841693 0.17900001 14326171
-0.0076744617 0.0060841693 0.17900001 13076620
-0.0068327212 0.0060841693 0.17900001 13076368
-0.0059909802 0.0060841693 0.17900001 16765659
-0.0051492397 0.0060841693 0.17900001 16566990
-0.0043074992 0.0060841693 0.17900001 16566740
-0.0034657582 0.0060841693 0.17900001 16698065
-0.0026240177 0.0060841693 0.17900001 12422035
-0.001782277 0.0060841693 0.17900001 13277344
-0.00094053627 0.0060841693 0.17900001 14129823
-9.8795615e-05 0.0060841693 0.17900001 14195355
0.00074294501 0.0060841693 0.17900001 13931411
0.0015846859 0.0060841693 0.17900001 13734550
0.0024264266 0.0060841693 0.17900001 16765397
0.0032681671 0.0060841693 0.17900001 16766680
0.0041099079 0.0060841693 0.17900001 16701143
0.0049516484 0.0060841693 0.17900001 12622492
0.0057933894 0.0060841693 0.17900001 13080215
0.0066351299 0.0060841693 0.17900001 13472659
0.0074768709 0.0060841693 0.17900001 13472143
0.0083186114 0.0060841693 0.17900001 13603731
0.0091603519 0.0060841693 0.17900001 13472145
0.010002092 0.0060841693 0.17900001 13669009
0.010843833 0.0060841693 0.17900001 12813702
0.011685573 0.0060841693 0.17900001 12879754
0.012527314 0.0060841693 0.17900001 12158859
0.013369055 0.0060841693 0.17900001 10713212
0.014210797 0.0060841693 0.17900001 12488078
0.015052537 0.0060841693 0.17900001 12024699
0.015894277 0.0060841693 0.17900001 12484737
0.016736018 0.0060841693 0.17900001 12089979
0.01757776 0.0060841693 0.17900001 11761014
0.018419499 0.0060841693 0.17900001 12287358
0.019261241 0.0060841693 0.17900001 11565691
0.020102981 0.0060841693 0.17900001 11501183
0.020944722 0.0060841693 0.17900001 10319739
0.021786463 0.0060841693 0.17900001 10122872
0.022628203 0.0060841693 0.17900001 11764353
0.023469944 0.0060841693 0.17900001 12157315
0.024311684 0.0060841693 0.17900001 12156545
0.025153426 0.0060841693 0.17900001 13537173
0.025849942 0.0060501797 0.178 14260126
0.026686978 0.0060501797 0.178 14260126
0.027524017 0.0060501797 0.178 13801372
0.028361056 0.0060501797 0.178 16766169
0.029198093 0.0060501797 0.178 15777990
0.030035133 0.0060501797 0.178 15184824
0.030872172 0.0060501797 0.178 13999003
0.031709209 0.0060501797 0.178 14591140
0.032546245 0.0060501797 0.178 13012108
0.033383284 0.0060501797 0.178 13275026
0.034220323 0.0060501797 0.178 13538198
0.035057362 0.0060501797 0.178 13472145
0.035894401 0.0060501797 0.178 12945034
0.036731437 0.0060501797 0.178 13076620
0.037568476 0.0060501797 0.178 13471632
0.038405515 0.0060501797 0.178 13076104
0.039242551 0.0060501797 0.178 14391451
0.039854422 0.0060161897 0.177 13865618
0.04068676 0.0060161897 0.177 13010309
0.041519094 0.0060161897 0.177 11826805
0.042351432 0.0060161897 0.177 11104879
0.043183766 0.0060161897 0.177 10777972
-0.016091868 0.0069259102 0.17900001 5127749
-0.015250128 0.0069259102 0.17900001 10517118
-0.014408386 0.0069259102 0.17900001 12946831
-0.013566647 0.0069259102 0.17900001 13143440
-0.012724906 0.0069259102 0.17900001 12879243
-0.011883165 0.0069259102 0.17900001 13863831
-0.011041424 0.0069259102 0.17900001 14719646
-0.010199684 0.0069259102 0.17900001 14324118
-0.0093579432 0.0069259102 0.17900001 14456474
-0.0085162027 0.0069259102 0.17900001 15245736
-0.0076744617 0.0069259102 0.17900001 14391710
-0.0068327212 0.0069259102 0.17900001 13996700
-0.0059909802 0.0069259102 0.17900001 12286852
-0.0051492397 0.0069259102 0.17900001 16762575
-0.0043074992 0.0069259102 0.17900001 16766171
-0.0034657582 0.0069259102 0.17900001 16367817
-0.0026240177 0.0069259102 0.17900001 12487826
-0.001782277 0.0069259102 0.17900001 13145756
-0.00094053627 0.0069259102 0.17900001 13670554
-9.8795615e-05 0.0069259102 0.17900001 14327450
0.00074294501 0.0069259102 0.17900001 14261144
0.0015846859 0.0069259102 0.17900001 13668241
0.0024264266 0.0069259102 0.17900001 13405587
0.0032681671 0.0069259102 0.17900001 13011854
0.0041099079 0.0069259102 0.17900001 11239041
0.0049516484 0.0069259102 0.17900001 10450808
0.0057933894 0.0069259102 0.17900001 11895941
0.0066351299 0.0069259102 0.17900001 12223108
0.0074768709 0.0069259102 0.17900001 12354694
0.0083186114 0.0069259102 0.17900001 11565178
0.0091603519 0.0069259102 0.17900001 12879754
0.010002092 0.0069259102 0.17900001 13208460
0.010843833 0.0069259102 0.17900001 12879495
0.011685573 0.0069259102 0.17900001 12550530
0.012527314 0.0069259102 0.17900001 11961480
0.013369055 0.0069259102 0.17900001 10055282
0.014210797 0.0069259102 0.17900001 11698049
0.015052537 0.0069259102 0.17900001 11433076
0.015894277 0.0069259102 0.17900001 11826807
0.016736018 0.0069259102 0.17900001 11827320
0.01757776 0.0069259102 0.17900001 11433076
0.018419499 0.0069259102 0.17900001 11762041
0.019261241 0.0069259102 0.17900001 11565691
0.020102981 0.0069259102 0.17900001 11171964
0.020944722 0.0069259102 0.17900001 9331561
0.021786463 0.0069259102 0.17900001 10121845
0.022628203 0.0069259102 0.17900001 11633283
0.023469944 0.0069259102 0.17900001 11895428
0.024311684 0.0069259102 0.17900001 12157830
0.025153426 0.0069259102 0.17900001 12157317
0.025849942 0.006887218 0.178 13669786
0.026686978 0.006887218 0.178 13866649
0.027524017 0.006887218 0.178 15182509
0.028361056 0.006887218 0.178 13669784
0.029198093 0.006887218 0.178 12946833
0.030035133 0.006887218 0.178 12617098
0.030872172 0.006887218 0.178 14392480
0.031709209 0.006887218 0.178 15708340
0.032546245 0.006887218 0.178 13999521
0.033383284 0.006887218 0.178 14920623
0.034220323 0.006887218 0.178 14262945
0.035057362 0.006887218 0.178 14722212
0.035894401 0.006887218 0.178 13207690
0.036731437 0.006887218 0.178 13076620
0.037568476 0.006887218 0.178 12813702
0.038405515 0.006887218 0.178 12682114
0.039242551 0.006887218 0.178 13208458
0.039854422 0.0068485257 0.177 12550528
0.04068676 0.0068485257 0.177 11762039
0.041519094 0.0068485257 0.177 11040369
0.042351432 0.0068485257 0.177 10910330
-0.016091868 0.0077676508 0.17900001 10786196
-0.015250128 0.0077676508 0.17900001 10189687
-0.014408386 0.0077676508 0.17900001 9397089
-0.013566647 0.0077676508 0.17900001 12421000
-0.012724906 0.0077676508 0.17900001 12353926
-0.011883165 0.0077676508 0.17900001 14391712
-0.011041424 0.0077676508 0.17900001 15772850
-0.010199684 0.0077676508 0.17900001 15969713
-0.0093579432 0.0077676508 0.17900001 14324116
-0.0085162027 0.0077676508 0.17900001 13863565
-0.0076744617 0.0077676508 0.17900001 14522265
-0.0068327212 0.0077676508 0.17900001 14523035
-0.0059909802 0.0077676508 0.17900001 14326171
-0.0051492397 0.0077676508 0.17900001 13602194
-0.0043074992 0.0077676508 0.17900001 13865366
-0.0034657582 0.0077676508 0.17900001 13996952
-0.0026240177 0.0077676508 0.17900001 13539483
-0.001782277 0.0077676508 0.17900001 12159373
-0.00094053627 0.0077676508 0.17900001 14197411
-9.8795615e-05 0.0077676508 0.17900001 13931409
0.00074294501 0.0077676508 0.17900001 12944514
0.0015846859 0.0077676508 0.17900001 12812930
0.0024264266 0.0077676508 0.17900001 12615553
0.0032681671 0.0077676508 0.17900001 12814215
0.0041099079 0.0077676508 0.17900001 11434877
0.0049516484 0.0077676508 0.17900001 9922411
0.0057933894 0.0077676508 0.17900001 11105660
0.0066351299 0.0077676508 0.17900001 11894404
0.0074768709 0.0077676508 0.17900001 12025477
0.0083186114 0.0077676508 0.17900001 12090500
0.0091603519 0.0077676508 0.17900001 12353412
0.010002092 0.0077676508 0.17900001 12682375
0.010843833 0.0077676508 0.17900001 12879495
0.011685573 0.0077676508 0.17900001 12353151
0.012527314 0.0077676508 0.17900001 11040119
0.013369055 0.0077676508 0.17900001 9527653
0.014210797 0.0077676508 0.17900001 10973556
0.015052537 0.0077676508 0.17900001 11236213
0.015894277 0.0077676508 0.17900001 11893373
0.016736018 0.0077676508 0.17900001 11827580
0.01757776 0.0077676508 0.17900001 11894143
0.018419499 0.0077676508 0.17900001 12157828
0.019261241 0.0077676508 0.17900001 11894658
0.020102981 0.0077676508 0.17900001 11368830
0.020944722 0.0077676508 0.17900001 10974587
0.021786463 0.0077676508 0.17900001 11040378
0.022628203 0.0077676508 0.17900001 11237757
0.023469944 0.0077676508 0.17900001 11566209
0.024311684 0.0077676508 0.17900001 10908792
0.025153426 0.0077676508 0.17900001 10382962
0.025995167 0.0077676508 0.17900001 11435136
0.026686978 0.0077242558 0.178 11894145
0.027678646 0.0077676508 0.17900001 12222340
0.028520387 0.0077676508 0.17900001 12617098
0.029362129 0.0077676508 0.17900001 13142928
0.03020387 0.0077676508 0.17900001 12419205
0.03104561 0.0077676508 0.17900001 12945549
0.031709209 0.0077242558 0.178 11958654
0.032546245 0.0077242558 0.178 11499133
0.033383284 0.0077242558 0.178 11499133
0.034220323 0.0077242558 0.178 11433592
0.035057362 0.0077242558 0.178 11894397
0.035894401 0.0077242558 0.178 11697018
0.036731437 0.0077242558 0.178 11696248
0.037568476 0.0077242558 0.178 11433076
0.038405515 0.0077242558 0.178 10840939
0.039242551 0.0077242558 0.178 10709099
0.039854422 0.0076808613 0.177 10973808
0.04068676 0.0076808613 0.177 11106164
0.041519094 0.0076808613 0.177 10647669
-0.016091868 0.0086093917 0.17900001 3617075
-0.015250128 0.0086093917 0.17900001 3878450
-0.014408386 0.0086093917 0.17900001 5059895
-0.013566647 0.0086093917 0.17900001 10780288
-0.012724906 0.0086093917 0.17900001 11172216
-0.011883165 0.0086093917 0.17900001 11169650
-0.011103109 0.008657489 0.18000001 11958393
-0.010256666 0.008657489 0.18000001 12549758
-0.0094102221 0.008657489 0.18000001 12615038
-0.0085637793 0.008657489 0.18000001 12811645
-0.0077173361 0.008657489 0.18000001 12680059
-0.0068708933 0.008657489 0.18000001 13009024
-0.0060244496 0.008657489 0.18000001 13207175
-0.0051780064 0.008657489 0.18000001 13404556
-0.0043315631 0.008657489 0.18000001 13076104
-0.0034851201 0.008657489 0.18000001 13274253
-0.0026386771 0.008657489 0.18000001 13144725
-0.0017922339 0.008657489 0.18000001 11040892
-0.00094579067 0.008657489 0.18000001 12355979
-9.9347548e-05 0.008657489 0.18000001 12550530
0.00074709556 0.008657489 0.18000001 12352379
0.0015935388 0.008657489 0.18000001 12418172
0.002439982 0.008657489 0.18000001 12353662
0.003286425 0.008657489 0.18000001 12485250
0.0041328683 0.008657489 0.18000001 12353926
0.0049793115 0.008657489 0.18000001 11959938
0.0058257547 0.008657489 0.18000001 11696512
0.0066721975 0.008657489 0.18000001 12222856
0.0075186412 0.008657489 0.18000001 12025731
0.0083650844 0.008657489 0.18000001 12221824
0.0092115272 0.008657489 0.18000001 12616582
0.01005797 0.008657489 0.18000001 12353410
0.010904414 0.008657489 0.18000001 12221824
0.011750856 0.008657489 0.18000001 12484996
0.012597299 0.008657489 0.18000001 12025729
0.013443743 0.008657489 0.18000001 11566463
0.014290187 0.008657489 0.18000001 11369084
0.015136628 0.008657489 0.18000001 11434877
0.015983073 0.008657489 0.18000001 11960451
0.016829515 0.008657489 0.18000001 11960451
0.017675959 0.008657489 0.18000001 12289416
0.018522402 0.008657489 0.18000001 12026244
0.019368844 0.008657489 0.18000001 11829381
0.020215288 0.008657489 0.18000001 12026760
0.021061732 0.008657489 0.18000001 12289932
0.021908173 0.008657489 0.18000001 11500416
0.022754617 0.008657489 0.18000001 11368830
0.023601061 0.008657489 0.18000001 11697795
0.024447504 0.008657489 0.18000001 11369343
0.025293948 0.008657489 0.18000001 10712697
0.026140392 0.008657489 0.18000001 10317941
0.026836906 0.0086093917 0.17900001 10711413
0.027833275 0.008657489 0.18000001 11105142
0.028679719 0.008657489 0.18000001 11630973
0.029526163 0.008657489 0.18000001 11630973
0.030372607 0.008657489 0.18000001 11236215
0.03121905 0.008657489 0.18000001 11301238
0.031887352 0.0086093917 0.17900001 11564410
0.032729089 0.0086093917 0.17900001 11630203
0.03357083 0.0086093917 0.17900001 11564410
0.03441257 0.0086093917 0.17900001 11170420
0.035254315 0.0086093917 0.17900001 11368312
0.036096055 0.0086093917 0.17900001 11631484
0.036937796 0.0086093917 0.17900001 11434875
0.037779536 0.0086093917 0.17900001 11303289
0.038621277 0.0086093917 0.17900001 10776945
0.039242551 0.0085612945 0.178 10776945
0.039854422 0.0085131973 0.177 11369595
0.04068676 0.0085131973 0.177 9463397
-0.015335324 0.0095039317 0.18000001 3028020
-0.014488881 0.0095039317 0.18000001 3288625
-0.013642439 0.0095039317 0.18000001 4074546
-0.012795995 0.0095039317 0.18000001 9531507
-0.011949551 0.0095039317 0.18000001 10712951
-0.011103109 0.0095039317 0.18000001 12290438
-0.010313648 0.0095567312 0.18100001 12026496
-0.0094625009 0.0095567312 0.18100001 11630455
-0.0086113559 0.0095567312 0.18100001 11958906
-0.00776021 0.0095567312 0.18100001 12287358
-0.0069090649 0.0095567312 0.18100001 12550276
-0.006057919 0.0095567312 0.18100001 12221311
-0.0052067731 0.0095567312 0.18100001 12352897
-0.0043556276 0.0095567312 0.18100001 12747655
-0.0035044819 0.0095567312 0.18100001 12616582
-0.0026533364 0.0095567312 0.18100001 12487311
-0.0018021908 0.0095567312 0.18100001 10186868
-0.00095104508 0.0095567312 0.18100001 11698822
-9.989948e-05 0.0095567312 0.18100001 11433594
0.00075124612 0.0095567312 0.18100001 11629174
0.0016023918 0.0095567312 0.18100001 12089979
0.0024535374 0.0095567312 0.18100001 12419457
0.0033046829 0.0095567312 0.18100001 12484996
0.0041558286 0.0095567312 0.18100001 12287619
0.0050069741 0.0095567312 0.18100001 12024447
0.00585812 0.0095567312 0.18100001 11958654
0.0067092655 0.0095567312 0.18100001 12287619
0.0075604115 0.0095567312 0.18100001 12682889
0.0084115565 0.0095567312 0.18100001 12288131
0.0092627024 0.0095567312 0.18100001 12879754
0.010113848 0.0095567312 0.18100001 12682375
0.010964993 0.0095567312 0.18100001 12748168
0.011816138 0.0095567312 0.18100001 11367029
0.012667284 0.0095567312 0.18100001 12749452
0.01351843 0.0095567312 0.18100001 12355209
0.014369576 0.0095567312 0.18100001 12355209
0.015220721 0.0095567312 0.18100001 12092037
0.016071867 0.0095567312 0.18100001 11696512
0.016923014 0.0095567312 0.18100001 11368060
0.017774159 0.0095567312 0.18100001 11433853
0.018625304 0.0095567312 0.18100001 11894404
0.019476449 0.0095567312 0.18100001 11960967
0.020327596 0.0095567312 0.18100001 11763588
0.021178741 0.0095567312 0.18100001 11764101
0.022029886 0.0095567312 0.18100001 11369343
0.022881033 0.0095567312 0.18100001 11040378
0.023732178 0.0095567312 0.18100001 11039865
0.024583325 0.0095567312 0.18100001 11697795
0.025293948 0.0095039317 0.18000001 11567236
0.026140392 0.0095039317 0.18000001 10844796
0.026986832 0.0095039317 0.18000001 10515318
0.027833275 0.0095039317 0.18000001 11040119
0.028679719 0.0095039317 0.18000001 11434107
0.029526163 0.0095039317 0.18000001 11105142
0.030372607 0.0095039317 0.18000001 10841457
0.03121905 0.0095039317 0.18000001 10973041
0.032065492 0.0095039317 0.18000001 11236213
0.032911934 0.0095039317 0.18000001 11565178
0.03375838 0.0095039317 0.18000001 11499385
0.034604821 0.0095039317 0.18000001 11170933
0.035451263 0.0095039317 0.18000001 10908533
0.036096055 0.0094511323 0.17900001 10843253
0.037144151 0.0095039317 0.18000001 11172218
0.037779536 0.0094511323 0.17900001 10909046
0.038621277 0.0094511323 0.17900001 11172216
0.039242551 0.0093983328 0.178 10843765
0.04007959 0.0093983328 0.178 10910841
-0.015335324 0.010350375 0.18000001 3158836
-0.014488881 0.010350375 0.18000001 2960687
-0.013642439 0.010350375 0.18000001 3551797
-0.012795995 0.010350375 0.18000001 3811887
-0.011949551 0.010350375 0.18000001 8149854
-0.011164793 0.010407878 0.18100001 10253683
-0.010313648 0.010407878 0.18100001 10712951
-0.0094625009 0.010407878 0.18100001 11303291
-0.0086113559 0.010407878 0.18100001 11893891
-0.00776021 0.010407878 0.18100001 12353926
-0.0069090649 0.010407878 0.18100001 12288131
-0.006057919 0.010407878 0.18100001 12287871
-0.0052067731 0.010407878 0.18100001 12156285
-0.0043796916 0.01046538 0.18200001 12024699
-0.0035238436 0.01046538 0.18200001 11893113
-0.0026679956 0.01046538 0.18200001 11894656
-0.0018121476 0.01046538 0.18200001 10450038
-0.00095629948 0.01046538 0.18200001 11568006
-0.00010045141 0.01046538 0.18200001 11961221
0.00075539667 0.01046538 0.18200001 12024961
0.0016112449 0.01046538 0.18200001 11827580
0.0024670931 0.01046538 0.18200001 12156031
0.003322941 0.01046538 0.18200001 11432310
0.004178789 0.01046538 0.18200001 11761021
0.0050346372 0.01046538 0.18200001 11826814
0.0058904854 0.01046538 0.18200001 12616584
0.0067463336 0.01046538 0.18200001 12616582
0.0076021818 0.01046538 0.18200001 12484996
0.0084580295 0.01046538 0.18200001 12484996
0.0093138777 0.01046538 0.18200001 12682375
0.010169726 0.01046538 0.18200001 12748168
0.011025574 0.01046538 0.18200001 11695482
0.011881421 0.01046538 0.18200001 11300724
0.01273727 0.01046538 0.18200001 11432824
0.013593119 0.01046538 0.18200001 11696766
0.014448967 0.01046538 0.18200001 12354696
0.015304814 0.01046538 0.18200001 12486282
0.016160663 0.01046538 0.18200001 12485258
0.017016511 0.01046538 0.18200001 11038582
0.01787236 0.01046538 0.18200001 11499133
0.018728206 0.01046538 0.18200001 11499646
0.019584054 0.01046538 0.18200001 11433853
0.020439902 0.01046538 0.18200001 11039865
0.021295752 0.01046538 0.18200001 10908792
0.022151599 0.01046538 0.18200001 11369343
0.023007447 0.01046538 0.18200001 10908792
0.023863295 0.01046538 0.18200001 10908792
0.024583325 0.010407878 0.18100001 11303037
0.02543447 0.010407878 0.18100001 11106685
0.026285617 0.010407878 0.18100001 11963279
0.02713676 0.010407878 0.18100001 11042177
0.027987905 0.010407878 0.18100001 11435390
0.028839052 0.010407878 0.18100001 11500670
0.029690197 0.010407878 0.18100001 11039095
0.030541344 0.010407878 0.18100001 10775923
0.031392489 0.010407878 0.18100001 10776177
0.032243636 0.010407878 0.18100001 11368314
0.033094779 0.010407878 0.18100001 11565693
0.033945926 0.010407878 0.18100001 11698049
0.034797072 0.010407878 0.18100001 10909046
0.035648216 0.010407878 0.18100001 10119790
0.036297709 0.010350375 0.18000001 10251376
0.037350509 0.010407878 0.18100001 10317169
0.037990596 0.010350375 0.18000001 10777720
0.038621277 0.010292873 0.17900001 11041662
0.039463017 0.010292873 0.17900001 9858671
-0.015505717 0.011321228 0.18200001 3290422
-0.014488881 0.011196818 0.18000001 2764078
-0.013642439 0.011196818 0.18000001 2961457
-0.012795995 0.011196818 0.18000001 3092016
-0.012015938 0.011259023 0.18100001 4009266
-0.011226477 0.011321228 0.18200001 8938598
-0.010313648 0.011259023 0.18100001 10515831
-0.0095147807 0.011321228 0.18200001 10910330
-0.0086589325 0.011321228 0.18200001 11303804
-0.0078030843 0.011321228 0.18200001 11763842
-0.0069472366 0.011321228 0.18200001 12355209
-0.0060913879 0.011321228 0.18200001 12552327
-0.0052355397 0.011321228 0.18200001 12683141
-0.004403756 0.011383432 0.18300001 12551557
-0.0035432056 0.011383432 0.18300001 12880522
-0.0026826551 0.011383432 0.18300001 12486793
-0.0018221044 0.011383432 0.18300001 10251376
-0.00096155389 0.011383432 0.18300001 10974585
-0.00010100334 0.011383432 0.18300001 12091270
0.00075954717 0.011383432 0.18300001 11432824
0.0016200979 0.011383432 0.18300001 11498103
0.0024806485 0.011383432 0.18300001 11432310
0.0033411989 0.011383432 0.18300001 11498103
0.0042017493 0.011383432 0.18300001 11629176
0.0050623002 0.011383432 0.18300001 11957887
0.0059228512 0.011383432 0.18300001 12484485
0.0067834011 0.011383432 0.18300001 12681864
0.007643952 0.011383432 0.18300001 12681862
0.0085045025 0.011383432 0.18300001 12879241
0.0093650529 0.011383432 0.18300001 12221313
0.010225603 0.011383432 0.18300001 11892861
0.011086154 0.011383432 0.18300001 11630203
0.011946704 0.011383432 0.18300001 11103859
0.012807255 0.011383432 0.18300001 11301238
0.013667806 0.011383432 0.18300001 11367031
0.014528356 0.011383432 0.18300001 12024961
0.015388906 0.011383432 0.18300001 12682891
0.016249457 0.011383432 0.18300001 11761535
0.017110009 0.011383432 0.18300001 11235191
0.017970558 0.011383432 0.18300001 11235191
0.01883111 0.011383432 0.18300001 11169398
0.019691659 0.011383432 0.18300001 10973302
0.020552211 0.011383432 0.18300001 10842486
0.021412762 0.011383432 0.18300001 10908792
0.022273311 0.011383432 0.18300001 10777206
0.023133863 0.011383432 0.18300001 10908792
0.023994412 0.011383432 0.18300001 11303550
0.024719143 0.011321228 0.18200001 11172218
0.025574993 0.011321228 0.18200001 11632769
0.026430842 0.011321228 0.18200001 11436935
0.027286686 0.011321228 0.18200001 11503500
0.028142536 0.011321228 0.18200001 11238273
0.028998384 0.011321228 0.18200001 11434623
0.029854232 0.011321228 0.18200001 11500670
0.030710081 0.011321228 0.18200001 11040119
0.031565931 0.011321228 0.18200001 10447728
0.032421779 0.011321228 0.18200001 10513775
0.033277623 0.011321228 0.18200001 10974326
0.034133472 0.011321228 0.18200001 11435390
0.03498932 0.011321228 0.18200001 11106939
0.035845168 0.011321228 0.18200001 10449009
0.036701016 0.011321228 0.18200001 10120044
0.037350509 0.011259023 0.18100001 10252400
0.038201656 0.011259023 0.18100001 10252659
0.038837038 0.011196818 0.18000001 7688017
-0.012867084 0.012110168 0.18100001 2895664
-0.012015938 0.012110168 0.18100001 2960687
-0.011226477 0.012177075 0.18200001 3416099
-0.010370629 0.012177075 0.18200001 9925491
-0.0095147807 0.012177075 0.18200001 11174013
-0.0087065091 0.012243982 0.18300001 11370879
-0.0078459587 0.012243982 0.18300001 11106939
-0.0069854083 0.012243982 0.18300001 11698562
-0.0061248573 0.012243982 0.18300001 11631486
-0.0052643064 0.012243982 0.18300001 12354696
-0.0044278204 0.01231089 0.18400002 12617866
-0.0035625673 0.01231089 0.18400002 12617866
-0.0026973144 0.01231089 0.18400002 12289414
-0.0018320613 0.01231089 0.18400002 11631484
-0.00096680829 0.01231089 0.18400002 11433594
-0.00010155528 0.01231089 0.18400002 11103859
0.00076369772 0.01231089 0.18400002 11037552
0.0016289508 0.01231089 0.18400002 11103345
0.0024942039 0.01231089 0.18400002 11497590
0.0033594568 0.01231089 0.18400002 11760762
0.0042247097 0.01231089 0.18400002 12550278
0.0050899629 0.01231089 0.18400002 12550278
0.0059552165 0.01231089 0.18400002 12879243
0.0068204692 0.01231089 0.18400002 12418692
0.0076857223 0.01231089 0.18400002 12287104
0.0085509755 0.01231089 0.18400002 12089725
0.0094162282 0.01231089 0.18400002 12287104
0.010281481 0.01231089 0.18400002 12156031
0.011146734 0.01231089 0.18400002 11761273
0.012011987 0.01231089 0.18400002 11563896
0.01287724 0.01231089 0.18400002 11695482
0.013742493 0.01231089 0.18400002 11695482
0.014607747 0.01231089 0.18400002 11892861
0.015472999 0.01231089 0.18400002 12287619
0.016338252 0.01231089 0.18400002 12287619
0.017203506 0.01231089 0.18400002 11695230
0.018068759 0.01231089 0.18400002 11103607
0.018934011 0.01231089 0.18400002 11300984
0.019799264 0.01231089 0.18400002 11300984
0.020664519 0.01231089 0.18400002 11170681
0.021529771 0.01231089 0.18400002 11368830
0.022395024 0.01231089 0.18400002 11237498
0.023260277 0.01231089 0.18400002 11303804
0.024125529 0.01231089 0.18400002 11369597
0.024854964 0.012243982 0.18300001 11172218
0.025715515 0.012243982 0.18300001 11829381
0.026576066 0.012243982 0.18300001 11568521
0.027286686 0.012177075 0.18200001 11832978
0.028142536 0.012177075 0.18200001 11437707
0.028998384 0.012177075 0.18200001 11369343
0.030018266 0.012243982 0.18300001 10381935
0.030878818 0.012243982 0.18300001 10448495
0.031739369 0.012243982 0.18300001 10974839
0.032599919 0.012243982 0.18300001 10909046
0.033460468 0.012243982 0.18300001 10909046
0.034321018 0.012243982 0.18300001 10580081
0.035181571 0.012243982 0.18300001 10580081
0.03604212 0.012243982 0.18300001 10646388
0.036701016 0.012177075 0.18200001 10054767
0.037556864 0.012177075 0.18200001 9331557
0.038201656 0.012110168 0.18100001 8806496
-0.015676109 0.013176143 0.18400002 2765361
-0.014730362 0.013104534 0.18300001 2896434
-0.013794022 0.013032923 0.18200001 3093813
-0.012938173 0.013032923 0.18200001 3488571
-0.011226477 0.013032923 0.18200001 3157811
-0.010427611 0.013104534 0.18300001 5061441
-0.0095670596 0.013104534 0.18300001 9333354
-0.0087065091 0.013104534 0.18300001 10910843
-0.0078888331 0.013176143 0.18400002 10647158
-0.0070235799 0.013176143 0.18400002 11237757
-0.0061583263 0.013176143 0.18400002 11368830
-0.0052930736 0.013176143 0.18400002 11631232
-0.0044518844 0.013247752 0.185 12091783
-0.0035819288 0.013247752 0.185 12091524
-0.0027119736 0.013247752 0.185 11894145
-0.0018420181 0.013247752 0.185 11894143
-0.00097206264 0.013247752 0.185 11630971
-0.0001021072 0.013247752 0.185 11038834
0.00076784822 0.013247752 0.185 11235443
0.0016378037 0.013247752 0.185 11695480
0.0025077593 0.013247752 0.185 12879756
0.0033777144 0.013247752 0.185 12945549
0.0042476701 0.013247752 0.185 12617098
0.0051176255 0.013247752 0.185 12682889
0.0059875813 0.013247752 0.185 12682889
0.0068575363 0.013247752 0.185 12288131
0.0077274921 0.013247752 0.185 12090754
0.0085974475 0.013247752 0.185 12024447
0.0094674025 0.013247752 0.185 12024447
0.010337358 0.013247752 0.185 12221826
0.011207313 0.013247752 0.185 12353412
0.012077268 0.013247752 0.185 11958652
0.012947224 0.013247752 0.185 11827066
0.01381718 0.013247752 0.185 11563894
0.014687136 0.013247752 0.185 11498103
0.01555709 0.013247752 0.185 11366517
0.016427046 0.013247752 0.185 11630203
0.017297002 0.013247752 0.185 11893375
0.018166957 0.013247752 0.185 12551305
0.019036911 0.013247752 0.185 12156547
0.019906867 0.013247752 0.185 11236215
0.020776823 0.013247752 0.185 11828865
0.021646779 0.013247752 0.185 12355207
0.022516733 0.013247752 0.185 11895426
0.023386689 0.013247752 0.185 11369595
0.024256645 0.013247752 0.185 11172216
0.024990784 0.013176143 0.18400002 10711667
0.025856037 0.013176143 0.18400002 11237244
0.026576066 0.013104534 0.18300001 11436420
0.027436614 0.013104534 0.18300001 12425375
0.028297165 0.013104534 0.18300001 11042695
0.029157715 0.013104534 0.18300001 11304066
0.030182302 0.013176143 0.18400002 11303550
0.031047555 0.013176143 0.18400002 10843767
0.031912807 0.013176143 0.18400002 10843767
0.032778062 0.013176143 0.18400002 10251630
0.033643313 0.013176143 0.18400002 10777460
0.034508567 0.013176143 0.18400002 10909046
0.035373818 0.013176143 0.18400002 10646388
0.036239073 0.013176143 0.18400002 10515320
0.03690267 0.013104534 0.18300001 9265766
0.037556864 0.013032923 0.18200001 8609117
0.038201656 0.012961314 0.18100001 7624019
-0.015590914 0.013965084 0.18300001 3159606
-0.014730362 0.013965084 0.18300001 3554364
-0.01371823 0.01381246 0.18100001 3488571
-0.012938173 0.013888773 0.18200001 3949383
-0.012082324 0.013888773 0.18200001 3554629
-0.011226477 0.013888773 0.18200001 2830652
-0.010427611 0.013965084 0.18300001 3420983
-0.0096193384 0.014041397 0.18400002 6113612
-0.0087540857 0.014041397 0.18400002 8610401
-0.0078888331 0.014041397 0.18400002 9793132
-0.0070617511 0.014117707 0.185 11764869
-0.0061917952 0.014117707 0.185 11567236
-0.0053218398 0.014117707 0.185 11764101
-0.0044759484 0.014194019 0.186 11697795
-0.0036012908 0.014194019 0.186 11499646
-0.0027266329 0.014194019 0.186 11565693
-0.001851975 0.014194019 0.186 11499900
-0.00097731699 0.014194019 0.186 11959936
-0.00010265913 0.014194019 0.186 12091522
0.00077199872 0.014194019 0.186 11301236
0.0016466568 0.014194019 0.186 11893373
0.0025213147 0.014194019 0.186 12221824
0.0033959725 0.014194019 0.186 12551305
0.0042706304 0.014194019 0.186 12748684
0.0051452885 0.014194019 0.186 12486282
0.0060199467 0.014194019 0.186 12157317
0.0068946043 0.014194019 0.186 12157317
0.0077692624 0.014194019 0.186 11696766
0.0086439196 0.014194019 0.186 11630973
0.0095185777 0.014194019 0.186 11302008
0.010393236 0.014194019 0.186 11302008
0.011267894 0.014194019 0.186 11695482
0.012142551 0.014194019 0.186 12747655
0.013017209 0.014194019 0.186 12484483
0.013891867 0.014194019 0.186 12024445
0.014766525 0.014194019 0.186 11892861
0.015641183 0.014194019 0.186 10642794
0.016515842 0.014194019 0.186 10841457
0.017390499 0.014194019 0.186 11959938
0.018265158 0.014194019 0.186 12157830
0.019139815 0.014194019 0.186 11894658
0.020014472 0.014194019 0.186 12092037
0.020889131 0.014194019 0.186 11894658
0.021763789 0.014194019 0.186 11697277
0.022638446 0.014194019 0.186 11303289
0.023513105 0.014194019 0.186 10974324
0.024387762 0.014194019 0.186 10843253
0.025126601 0.014117707 0.185 10909046
0.025996557 0.014117707 0.185 10908792
0.026721291 0.014041397 0.18400002 11238271
0.027436614 0.013965084 0.18300001 10188153
0.028451795 0.014041397 0.18400002 10845829
0.029317047 0.014041397 0.18400002 10515833
0.030346334 0.014117707 0.185 10777974
0.03121629 0.014117707 0.185 11172732
0.032086246 0.014117707 0.185 10910330
0.032956202 0.014117707 0.185 10713464
0.033826154 0.014117707 0.185 10647671
0.03469611 0.014117707 0.185 10516085
0.035566065 0.014117707 0.185 10121327
0.036239073 0.014041397 0.18400002 9265766
0.037104327 0.014041397 0.18400002 8477533
0.037763223 0.013965084 0.18300001 8084059
-0.015505717 0.014744621 0.18200001 3817538
-0.014569375 0.014663606 0.18100001 3948354
-0.01371823 0.014663606 0.18100001 3159608
-0.010427611 0.014825636 0.18300001 5793906
-0.0096193384 0.014906649 0.18400002 5789529
-0.0088016624 0.014987663 0.185 6507343
-0.0079317065 0.014987663 0.185 9202540
-0.0070999227 0.015068678 0.186 9595753
-0.0062252646 0.015068678 0.186 10581365
-0.0053506065 0.015068678 0.186 11107709
-0.0045000128 0.015149692 0.18700001 11370111
-0.0036206525 0.015149692 0.18700001 11566209
-0.0027412924 0.015149692 0.18700001 11895428
-0.0018619319 0.015149692 0.18700001 11961221
-0.00098257139 0.015149692 0.18700001 12092035
-0.000103763 0.015230707 0.18800001 11631484
0.00078029983 0.015230707 0.18800001 12092035
0.0016555098 0.015149692 0.18700001 12091522
0.0025348703 0.015149692 0.18700001 12090752
0.0034142304 0.015149692 0.18700001 12090752
0.0042935908 0.015149692 0.18700001 11827580
0.0051729511 0.015149692 0.18700001 11893375
0.006052312 0.015149692 0.18700001 11433594
0.0069316719 0.015149692 0.18700001 11499387
0.0078110327 0.015149692 0.18700001 11104375
0.0086903926 0.015149692 0.18700001 11104375
0.009569753 0.015149692 0.18700001 10973043
0.010449113 0.015149692 0.18700001 11761275
0.011328474 0.015149692 0.18700001 11695482
0.012207834 0.015149692 0.18700001 11761275
0.013087194 0.015149692 0.18700001 12221826
0.013966555 0.015149692 0.18700001 12222340
0.014845916 0.015149692 0.18700001 11761789
0.015725276 0.015149692 0.18700001 11761789
0.016604636 0.015149692 0.18700001 11959936
0.017483996 0.015149692 0.18700001 11697277
0.018363358 0.015149692 0.18700001 11565693
0.019242717 0.015149692 0.18700001 11631486
0.020122077 0.015149692 0.18700001 11828865
0.021001438 0.015149692 0.18700001 11565693
0.0218808 0.015149692 0.18700001 11565693
0.022760158 0.015149692 0.18700001 11303291
0.023639519 0.015149692 0.18700001 11105912
0.024518881 0.015149692 0.18700001 10974839
0.025262421 0.015068678 0.186 11040632
0.02613708 0.015068678 0.186 11172218
0.026866512 0.014987663 0.185 11041146
0.02758654 0.014906649 0.18400002 11042175
0.028606422 0.014987663 0.185 11175308
0.029476378 0.014987663 0.185 11109255
0.030510368 0.015068678 0.186 10844796
0.031385027 0.015068678 0.186 10646904
0.032259684 0.015068678 0.186 10910076
0.033134341 0.015068678 0.186 10121073
0.034008998 0.015068678 0.186 9463143
0.034883656 0.015068678 0.186 9463143
0.035758317 0.015068678 0.186 9265764
0.036436021 0.014987663 0.185 8674910
0.037104327 0.014906649 0.18400002 8084059
-0.015420521 0.015514751 0.18100001 3949124
-0.014569375 0.015514751 0.18100001 4146503
-0.0096193384 0.015771901 0.18400002 4079170
-0.0088016624 0.015857618 0.185 4865859
-0.0079745799 0.015943335 0.186 6703437
-0.0070999227 0.015943335 0.186 8347231
-0.0062587336 0.016029052 0.18700001 9332840
-0.0053793732 0.016029052 0.18700001 10778490
-0.0045240773 0.01611477 0.18800001 10252400
-0.0036400142 0.01611477 0.18800001 10252400
-0.0027559516 0.01611477 0.18800001 10580595
-0.0018718888 0.01611477 0.18800001 11501183
-0.0009878258 0.01611477 0.18800001 11632767
-0.00010431492 0.016200487 0.18900001 11237496
0.00078445039 0.016200487 0.18900001 11369082
0.0016732158 0.016200487 0.18900001 12025729
0.0025619811 0.016200487 0.18900001 12288131
0.0034507464 0.016200487 0.18900001 11630201
0.0043395115 0.016200487 0.18900001 11432822
0.0052282768 0.016200487 0.18900001 11564408
0.0061170426 0.016200487 0.18900001 11170933
0.0070058075 0.016200487 0.18900001 10973556
0.0078945737 0.016200487 0.18900001 10644337
0.0087833386 0.016200487 0.18900001 10973302
0.0096721034 0.016200487 0.18900001 11696766
0.010560869 0.016200487 0.18900001 12222340
0.011449634 0.016200487 0.18900001 12024961
0.012338399 0.016200487 0.18900001 11432824
0.013227165 0.016200487 0.18900001 11235445
0.014115931 0.016200487 0.18900001 11432824
0.015004696 0.016200487 0.18900001 11301238
0.015893461 0.016200487 0.18900001 11103859
0.016782226 0.016200487 0.18900001 11236728
0.017670993 0.016200487 0.18900001 11697279
0.018559758 0.016200487 0.18900001 11105142
0.019448522 0.016200487 0.18900001 11763842
0.020337287 0.016200487 0.18900001 11500670
0.021226054 0.016200487 0.18900001 11369597
0.022114819 0.016200487 0.18900001 11369597
0.023003584 0.016200487 0.18900001 11040632
0.023892349 0.016200487 0.18900001 11303804
0.024649998 0.01611477 0.18800001 10712181
0.025398241 0.016029052 0.18700001 10580595
0.026277602 0.016029052 0.18700001 10646388
0.026866512 0.015857618 0.185 10186607
0.028606422 0.015857618 0.185 10385278
0.029635709 0.015943335 0.186 10122874
0.030838437 0.01611477 0.18800001 10451323
0.031722501 0.01611477 0.18800001 10055282
0.032606564 0.01611477 0.18800001 9199973
0.033490628 0.01611477 0.18800001 9200743
0.034374688 0.01611477 0.18800001 9134948
0.035071205 0.016029052 0.18700001 9135461
0.035950564 0.016029052 0.18700001 8938596
0.036436021 0.015857618 0.185 8216158
-0.015335324 0.016275477 0.18000001 4147014
-0.014488881 0.016275477 0.18000001 4607567
-0.013415064 0.01600422 0.177 3950153
-0.0088016624 0.016727574 0.185 4012866
-0.0078888331 0.016637156 0.18400002 5193540
-0.0071380944 0.016908413 0.18700001 7624793
-0.006292203 0.016998831 0.18800001 8281951
-0.0054081399 0.016998831 0.18800001 8806498
-0.0045481413 0.017089251 0.18900001 9989489
-0.0036593762 0.017089251 0.18900001 10450038
-0.0027706109 0.017089251 0.18900001 10450038
-0.0018818455 0.017089251 0.18900001 10713210
-0.0009930802 0.017089251 0.18900001 11239295
-0.00010486686 0.017179672 0.19000001 11370109
0.00078860088 0.017179672 0.19000001 11237496
0.0016820688 0.017179672 0.19000001 11303289
0.0025755367 0.017179672 0.19000001 11500668
0.0034690043 0.017179672 0.19000001 11105910
0.0043624719 0.017179672 0.19000001 11105910
0.0052559399 0.017179672 0.19000001 11237496
0.0061494079 0.017179672 0.19000001 10974324
0.0070428755 0.017179672 0.19000001 10776947
0.0079363436 0.017179672 0.19000001 10316142
0.0088298116 0.017179672 0.19000001 11697025
0.0097232787 0.017179672 0.19000001 11697279
0.010616747 0.017179672 0.19000001 11368314
0.011510214 0.017179672 0.19000001 11368314
0.012403682 0.017179672 0.19000001 11236728
0.01329715 0.017179672 0.19000001 11499900
0.014190618 0.017179672 0.19000001 11105142
0.015084086 0.017179672 0.19000001 11434107
0.015977552 0.017179672 0.19000001 11434107
0.016871022 0.017179672 0.19000001 11236728
0.01776449 0.017179672 0.19000001 11565693
0.018657958 0.017179672 0.19000001 11500670
0.019551424 0.017179672 0.19000001 11435390
0.020444892 0.017179672 0.19000001 11304318
0.02133836 0.017179672 0.19000001 11173502
0.022231828 0.017179672 0.19000001 10844796
0.023125295 0.017179672 0.19000001 10976382
0.024018764 0.017179672 0.19000001 10646904
0.024781115 0.017089251 0.18900001 10647158
0.02566988 0.017089251 0.18900001 10581365
0.026558645 0.017089251 0.18900001 10712951
0.027156962 0.016908413 0.18700001 10318193
0.027886393 0.016817993 0.186 9989741
0.031002471 0.017089251 0.18900001 9992058
0.031891238 0.017089251 0.18900001 9661296
0.032780003 0.017089251 0.18900001 9332331
0.033668768 0.017089251 0.18900001 8806500
0.034557533 0.017089251 0.18900001 8543842
0.035446297 0.017089251 0.18900001 8610403
0.035950564 0.016908413 0.18700001 7953758
-0.016091868 0.017026799 0.17900001 3751743
-0.015335324 0.01712192 0.18000001 4014915
-0.014408386 0.017026799 0.17900001 4607567
-0.013415064 0.016836556 0.177 3225147
-0.0079745799 0.017692652 0.186 4209214
-0.0071762661 0.017882895 0.18800001 5981773
-0.006292203 0.017882895 0.18800001 7559511
-0.0054369066 0.017978016 0.18900001 7624791
-0.0045481413 0.017978016 0.18900001 7885396
-0.0036593762 0.017978016 0.18900001 9069157
-0.0027852703 0.01807314 0.19000001 10516601
-0.0019017593 0.018168261 0.19100001 10714234
-0.001003589 0.018168261 0.19100001 10714234
-0.00010541879 0.018168261 0.19100001 10976636
0.00079275144 0.018168261 0.19100001 11370111
0.0016909218 0.018168261 0.19100001 10909046
0.0025890921 0.018168261 0.19100001 10909046
0.0034872622 0.018168261 0.19100001 11040632
0.0043854327 0.018168261 0.19100001 11501183
0.005283603 0.018168261 0.19100001 11369597
0.0061817733 0.018168261 0.19100001 11435390
0.0070799435 0.018168261 0.19100001 11501183
0.0079781143 0.018168261 0.19100001 11369597
0.0088762837 0.018168261 0.19100001 11040632
0.0097744539 0.018168261 0.19100001 11632515
0.010672624 0.018168261 0.19100001 11501183
0.011570795 0.018168261 0.19100001 11369597
0.012468965 0.018168261 0.19100001 11238011
0.013367135 0.018168261 0.19100001 10118247
0.014265305 0.018168261 0.19100001 10052454
0.015163477 0.018168261 0.19100001 10447982
0.016061645 0.018168261 0.19100001 10053224
0.016959816 0.018168261 0.19100001 11105912
0.017857987 0.018168261 0.19100001 11829635
0.018756157 0.018168261 0.19100001 11566463
0.019654326 0.018168261 0.19100001 11106939
0.020552497 0.018168261 0.19100001 10318193
0.021450669 0.018168261 0.19100001 10186866
0.022348838 0.018168261 0.19100001 9923696
0.023247007 0.018168261 0.19100001 10121843
0.024145178 0.018168261 0.19100001 10319222
0.02504335 0.018168261 0.19100001 10121843
0.025941519 0.018168261 0.19100001 9595499
0.026699169 0.01807314 0.19000001 9463913
0.027447412 0.017978016 0.18900001 9529706
0.02758654 0.017502408 0.18400002 9924464
0.031330541 0.018168261 0.19100001 8348262
0.032059975 0.01807314 0.19000001 8610405
0.032953441 0.01807314 0.19000001 8544612
0.034025054 0.018168261 0.19100001 8150367
0.034740377 0.01807314 0.19000001 7624793
0.035446297 0.017978016 0.18900001 6770513
-0.016091868 0.017868539 0.17900001 3882561
-0.015250128 0.017868539 0.17900001 4211524
-0.014408386 0.017868539 0.17900001 4606282
-0.013415064 0.017668892 0.177 4277065
-0.0054369066 0.018866783 0.18900001 5915970
-0.0045722057 0.018966608 0.19000001 7558228
-0.0036980996 0.019066432 0.19100001 7820887
-0.0027999296 0.019066432 0.19100001 8017494
-0.0019117161 0.019166255 0.192 9728112
-0.0010088434 0.019166255 0.192 10517114
-0.00010597071 0.019166255 0.192 10517114
0.00080105243 0.019266078 0.193 10647417
0.0017086277 0.019266078 0.193 10450038
0.0026162029 0.019266078 0.193 10713210
0.0035237779 0.019266078 0.193 11042429
0.004431353 0.019266078 0.193 11041916
0.0053389282 0.019266078 0.193 11107709
0.0062465039 0.019266078 0.193 11173248
0.0071540787 0.019266078 0.193 10910076
0.0080616539 0.019266078 0.193 10843513
0.0089692287 0.019266078 0.193 10777720
0.0098768035 0.019266078 0.193 10448755
0.010784379 0.019266078 0.193 10646134
0.011691954 0.019266078 0.193 10317169
0.012599529 0.019266078 0.193 10448755
0.013507104 0.019266078 0.193 10908792
0.01441468 0.019266078 0.193 11435390
0.015322255 0.019266078 0.193 10777460
0.016229829 0.019266078 0.193 10382702
0.017137405 0.019266078 0.193 11238011
0.01804498 0.019266078 0.193 11566463
0.018952556 0.019266078 0.193 11369595
0.01986013 0.019266078 0.193 10251630
0.020767706 0.019266078 0.193 9594729
0.021675281 0.019266078 0.193 9726315
0.022582857 0.019266078 0.193 9858671
0.023490431 0.019266078 0.193 9792878
0.024398006 0.019266078 0.193 9595499
0.025305582 0.019266078 0.193 9332329
0.026213158 0.019266078 0.193 8674912
0.02683969 0.019066432 0.19100001 8872291
0.027592637 0.018966608 0.19000001 8872291
0.031330541 0.019066432 0.19100001 9270649
0.032228712 0.019066432 0.19100001 8151396
0.033126883 0.019066432 0.19100001 7625052
0.034025054 0.019066432 0.19100001 7231064
0.034923222 0.019066432 0.19100001 5128000
-0.01600197 0.018605752 0.178 3949124
-0.015164931 0.018605752 0.178 4014917
-0.014327893 0.018605752 0.178 4212296
-0.0045962702 0.019964602 0.19100001 6771027
-0.0036980996 0.019964602 0.19100001 7822685
-0.0028145888 0.020069126 0.192 9203053
-0.001921673 0.020173654 0.193 9532018
-0.0010140978 0.020173654 0.193 9663091
-0.00010652265 0.020173654 0.193 10583423
0.00080520299 0.02027818 0.19400001 10714495
0.0017174807 0.02027818 0.19400001 10846081
0.0026297583 0.02027818 0.19400001 10977665
0.0035420358 0.02027818 0.19400001 11109505
0.0044543133 0.02027818 0.19400001 10845820
0.0053665913 0.02027818 0.19400001 10780027
0.0062788692 0.02027818 0.19400001 10582394
0.0071911463 0.02027818 0.19400001 10319222
0.0081034247 0.02027818 0.19400001 9660524
0.0090157017 0.02027818 0.19400001 10121075
0.0099279787 0.02027818 0.19400001 10317939
0.010840257 0.02027818 0.19400001 10252146
0.011752534 0.02027818 0.19400001 9988974
0.012664812 0.02027818 0.19400001 10252146
0.01357709 0.02027818 0.19400001 10646904
0.014489368 0.02027818 0.19400001 10910076
0.015401646 0.02027818 0.19400001 10646904
0.016313922 0.02027818 0.19400001 10515318
0.017226201 0.02027818 0.19400001 11106939
0.018138478 0.02027818 0.19400001 10317423
0.019148955 0.020382708 0.19500001 10251630
0.020065935 0.020382708 0.19500001 9791849
0.020982916 0.020382708 0.19500001 10186866
0.021899896 0.020382708 0.19500001 10121843
0.022816876 0.020382708 0.19500001 10188149
0.023733856 0.020382708 0.19500001 9859184
0.024650836 0.020382708 0.19500001 9859184
0.025567817 0.020382708 0.19500001 8938086
0.026348976 0.02027818 0.19400001 8411742
0.027261255 0.02027818 0.19400001 8346461
-0.001921673 0.021081228 0.193 8941936
-0.0010193522 0.021190459 0.19400001 9730680
-0.00010707458 0.021190459 0.19400001 9927544
0.00080935354 0.021299688 0.19500001 9466223
0.0017263338 0.021299688 0.19500001 10715007
0.0026433137 0.021299688 0.19500001 10780800
0.0035602937 0.021299688 0.19500001 10715261
0.0044772737 0.021299688 0.19500001 10583675
0.0053942539 0.021299688 0.19500001 10385782
0.0063112346 0.021299688 0.19500001 9990770
0.0072282143 0.021299688 0.19500001 9727598
0.0081451945 0.021299688 0.19500001 9859184
0.0090621747 0.021299688 0.19500001 9924464
0.009979154 0.021299688 0.19500001 10186866
0.010896134 0.021299688 0.19500001 10450038
0.011813114 0.021299688 0.19500001 10121073
0.012730094 0.021299688 0.19500001 10186866
0.013647075 0.021299688 0.19500001 10055280
0.014564055 0.021299688 0.19500001 10121073
0.015481035 0.021299688 0.19500001 9792108
0.016398015 0.021299688 0.19500001 9923694
0.017314995 0.021299688 0.19500001 9989487
0.018231975 0.021299688 0.19500001 10186866
0.019148955 0.021299688 0.19500001 9661292
0.020168837 0.021408917 0.19600001 9792878
0.021090521 0.021408917 0.19600001 9463915
0.022012204 0.021408917 0.19600001 9069668
0.022933885 0.021408917 0.19600001 9267047
0.023855567 0.021408917 0.19600001 8478045
0.02477725 0.021408917 0.19600001 8084061
0.025698934 0.021408917 0.19600001 7360338
0.026620617 0.021408917 0.19600001 7755609
0.027542299 0.021408917 0.19600001 7821402
-0.00010707458 0.022102736 0.19400001 8942196
0.00080935354 0.022216668 0.19500001 10324101
0.0017263338 0.022216668 0.19500001 10191999
0.0026568694 0.022330599 0.19600001 10257022
0.0035785518 0.022330599 0.19600001 10717573
0.0045002345 0.022330599 0.19600001 10519935
0.005421917 0.022330599 0.19600001 10519935
0.0063435999 0.022330599 0.19600001 10388349
0.0072652819 0.022330599 0.19600001 10584958
0.0081869652 0.022330599 0.19600001 9992308
0.0091086468 0.022330599 0.19600001 10057077
0.010030329 0.022330599 0.19600001 9859698
0.010952013 0.022330599 0.19600001 9925491
0.011873694 0.022330599 0.19600001 9859698
0.012795377 0.022330599 0.19600001 10057077
0.01371706 0.022330599 0.19600001 9596526
0.014638742 0.022330599 0.19600001 9728112
0.015560426 0.022330599 0.19600001 9793905
0.016482107 0.022330599 0.19600001 9596526
0.017403791 0.022330599 0.19600001 9662319
0.018325472 0.022330599 0.19600001 9333354
0.019247156 0.022330599 0.19600001 9399149
0.020271739 0.022444531 0.19700001 9201770
0.021198126 0.022444531 0.19700001 8478047
0.02212451 0.022444531 0.19700001 8872805
0.023050897 0.022444531 0.19700001 8543840
0.02397728 0.022444531 0.19700001 8084059
0.024903666 0.022444531 0.19700001 7426644
0.025830051 0.022444531 0.19700001 7493207
0.026756436 0.022444531 0.19700001 7362650
0.027682822 0.022444531 0.19700001 6310476
0.0026568694 0.023252282 0.19600001 6771279
0.0035785518 0.023252282 0.19600001 6901581
0.0045002345 0.023252282 0.19600001 9006696
0.005421917 0.023252282 0.19600001 10584958
0.0063435999 0.023252282 0.19600001 10782337
0.0072652819 0.023252282 0.19600001 10848130
0.0081869652 0.023252282 0.19600001 10388349
0.0091086468 0.023252282 0.19600001 9993589
0.010030329 0.023252282 0.19600001 9862003
0.010952013 0.023252282 0.19600001 9796210
0.011873694 0.023252282 0.19600001 9862005
0.012795377 0.023252282 0.19600001 9598063
0.01371706 0.023252282 0.19600001 9597550
0.014638742 0.023252282 0.19600001 9926261
0.015560426 0.023252282 0.19600001 9663602
