# .PCD v0.7 - Point Cloud Data file format
VERSION 0.7
FIELDS x y z rgb
SIZE 4 4 4 4
TYPE F F F U
COUNT 1 1 1 1
WIDTH 1098
HEIGHT 1
VIEWPOINT 0 0 0 1 0 0 0
POINTS 1098
DATA ascii
-0.0010193522 0.0047694612 0.19400001 13472407
-0.00010707458 0.0047694612 0.19400001 13601681
0.00080520299 0.0047694612 0.19400001 15707057
0.0017174807 0.0047694612 0.19400001 14128025
0.0026297583 0.0047694612 0.19400001 15114920
0.0035237779 0.0047448762 0.193 15050925
0.004431353 0.0047448762 0.193 16772595
0.0053389282 0.0047448762 0.193 16373207
0.0062465039 0.0047448762 0.193 12491420
0.0071540787 0.0047448762 0.193 15513789
0.0080616539 0.0047448762 0.193 16761284
0.0089227557 0.0047202911 0.192 15574185
0.0098256283 0.0047202911 0.192 13470349
0.010728502 0.0047202911 0.192 13602194
0.011631373 0.0047202911 0.192 13669018
0.012534246 0.0047202911 0.192 15381435
0.013437119 0.0047202911 0.192 14395312
0.014265305 0.0046957065 0.19100001 9396841
0.015163477 0.0046957065 0.19100001 12225940
0.016061645 0.0046957065 0.19100001 9592936
0.016959816 0.0046957065 0.19100001 9524575
0.017857987 0.0046957065 0.19100001 9853024
0.018756157 0.0046957065 0.19100001 11826305
0.019654326 0.0046957065 0.19100001 11103357
0.020552497 0.0046957065 0.19100001 16500949
0.02133836 0.0046711219 0.19000001 14067122
0.022231828 0.0046711219 0.19000001 9134964
0.023125295 0.0046711219 0.19000001 9594748
0.024018764 0.0046711219 0.19000001 8276571
0.024912233 0.0046711219 0.19000001 10838636
0.025805701 0.0046711219 0.19000001 11363949
0.026699169 0.0046711219 0.19000001 12086899
0.027447412 0.0046465369 0.18900001 10573406
0.028336175 0.0046465369 0.18900001 8142147
0.02922494 0.0046465369 0.18900001 6632511
0.030113706 0.0046465369 0.18900001 6832458
0.031002471 0.0046465369 0.18900001 6765632
0.031891238 0.0046465369 0.18900001 7356738
0.032606564 0.0046219518 0.18800001 7489607
0.033490628 0.0046219518 0.18800001 7490377
0.034374688 0.0046219518 0.18800001 7423814
0.035258751 0.0046219518 0.18800001 7686473
0.036142815 0.0046219518 0.18800001 8473422
0.036829926 0.0045973673 0.18700001 14063776
0.037709285 0.0045973673 0.18700001 12547455
0.038588647 0.0045973673 0.18700001 11889777
0.039468009 0.0045973673 0.18700001 11823725
0.040131606 0.0045727822 0.186 11889518
0.041006263 0.0045727822 0.186 12021363
0.041880921 0.0045727822 0.186 12285305
0.042755578 0.0045727822 0.186 12811395
0.043395665 0.0045481971 0.185 14128027
0.04426562 0.0045481971 0.185 14458273
0.045135576 0.0045481971 0.185 14261923
0.046005532 0.0045481971 0.185 12815506
0.046875488 0.0045481971 0.185 7752275
0.047487359 0.004523613 0.18400002 4140339
-0.016018264 0.0058281757 0.19900002 7896700
-0.015006683 0.0057988884 0.19800001 10654862
-0.014075595 0.0057988884 0.19800001 11177865
-0.013078121 0.0057696006 0.19700001 12292242
-0.012151736 0.0057696006 0.19700001 14656681
-0.011225351 0.0057696006 0.19700001 15901869
-0.010246687 0.0057403133 0.19600001 15112094
-0.0093250042 0.0057403133 0.19600001 15440289
-0.0083604474 0.005711026 0.19500001 14388371
-0.0074434676 0.005711026 0.19500001 13993613
-0.0065599564 0.0057403133 0.19600001 13797517
-0.0056095067 0.005711026 0.19500001 12153983
-0.004692527 0.005711026 0.19500001 16767973
-0.0037561848 0.0056817387 0.19400001 16766690
-0.0028439073 0.0056817387 0.19400001 12880016
-0.0019316298 0.0056817387 0.19400001 11957623
-0.0010193522 0.0056817387 0.19400001 11167594
-0.00010707458 0.0056817387 0.19400001 12480887
0.00080520299 0.0056817387 0.19400001 12810620
0.0017174807 0.0056817387 0.19400001 12284276
0.0026297583 0.0056817387 0.19400001 12481914
0.0035237779 0.0056524514 0.193 12614016
0.004431353 0.0056524514 0.193 14194849
0.0053389282 0.0056524514 0.193 16767195
0.0062465039 0.0056524514 0.193 13738405
0.0071540787 0.0056524514 0.193 12683920
0.0080616539 0.0056524514 0.193 12220543
0.0089227557 0.0056231641 0.192 12087672
0.0098256283 0.0056231641 0.192 12285051
0.010728502 0.0056231641 0.192 11562352
0.011631373 0.0056231641 0.192 11431797
0.012534246 0.0056231641 0.192 11299959
0.013437119 0.0056231641 0.192 9590370
0.014265305 0.0055938768 0.19100001 9067106
0.015163477 0.0055938768 0.19100001 11369093
0.016061645 0.0055938768 0.19100001 9065305
0.016959816 0.0055938768 0.19100001 11168623
0.017857987 0.0055938768 0.19100001 10444900
0.018756157 0.0055938768 0.19100001 11366263
0.019654326 0.0055938768 0.19100001 9853542
0.020552497 0.0055938768 0.19100001 16370645
0.02133836 0.0055645895 0.19000001 16108756
0.022231828 0.0055645895 0.19000001 15715546
0.023125295 0.0055645895 0.19000001 11437717
0.024018764 0.0055645895 0.19000001 12354957
0.024912233 0.0055645895 0.19000001 14325919
0.025805701 0.0055645895 0.19000001 14785957
0.026699169 0.0055645895 0.19000001 15245738
0.027447412 0.0055353022 0.18900001 12679811
0.028336175 0.0055353022 0.18900001 15907777
0.02922494 0.0055353022 0.18900001 16043476
0.030113706 0.0055353022 0.18900001 15780820
0.031002471 0.0055353022 0.18900001 11369859
0.031891238 0.0055353022 0.18900001 8997967
0.032606564 0.0055060149 0.18800001 10511460
0.033490628 0.0055060149 0.18800001 10774892
0.034374688 0.0055060149 0.18800001 9854560
0.035258751 0.0055060149 0.18800001 8737877
0.036142815 0.0055060149 0.18800001 15184826
0.036829926 0.0054767276 0.18700001 16764118
0.037709285 0.0054767276 0.18700001 15116730
0.038588647 0.0054767276 0.18700001 11167601
0.039468009 0.0054767276 0.18700001 12285305
0.040131606 0.0054474403 0.186 12745856
0.041006263 0.0054474403 0.186 13272200
0.041880921 0.0054474403 0.186 13996439
0.042755578 0.0054474403 0.186 13535890
0.043395665 0.005418153 0.185 14128538
0.04426562 0.005418153 0.185 13866136
0.045135576 0.005418153 0.185 13998749
0.046005532 0.005418153 0.185 10382189
0.046875488 0.005418153 0.185 4201504
0.047487359 0.0053888657 0.18400002 7299169
-0.016098756 0.0067979544 0.2 2105380
-0.015082474 0.0067639654 0.19900002 2563621
-0.014075595 0.0067299753 0.19800001 4269350
-0.013078121 0.0066959853 0.19700001 13409180
-0.012090052 0.0066619958 0.19600001 13732751
-0.011168369 0.0066619958 0.19600001 14584978
-0.010246687 0.0066619958 0.19600001 13530491
-0.0093250042 0.0066619958 0.19600001 12675436
-0.0083604474 0.0066280058 0.19500001 12676206
-0.0074434676 0.0066280058 0.19500001 12676979
-0.0065599564 0.0066619958 0.19600001 12150635
-0.0056095067 0.0066280058 0.19500001 12546167
-0.004692527 0.0066280058 0.19500001 16430012
-0.0037561848 0.0065940162 0.19400001 14062232
-0.0028439073 0.0065940162 0.19400001 10179157
-0.0019316298 0.0065940162 0.19400001 10378591
-0.0010193522 0.0065940162 0.19400001 11101547
-0.00010707458 0.0065940162 0.19400001 11362922
0.00080520299 0.0065940162 0.19400001 11626344
0.0017174807 0.0065940162 0.19400001 12416117
0.0026297583 0.0065940162 0.19400001 12416117
0.0035237779 0.0065600262 0.193 12284533
0.004431353 0.0065600262 0.193 11889523
0.0053389282 0.0065600262 0.193 11235191
0.0062465039 0.0065600262 0.193 11368062
0.0071540787 0.0065600262 0.193 11696514
0.0080616539 0.0065600262 0.193 11366777
0.0089227557 0.0065260362 0.192 11563894
0.0098256283 0.0065260362 0.192 11299439
0.010728502 0.0065260362 0.192 11628145
0.011631373 0.0065260362 0.192 11497336
0.012534246 0.0065260362 0.192 15314107
0.013437119 0.0065260362 0.192 16302285
0.014265305 0.0064920471 0.19100001 11436170
0.015163477 0.0064920471 0.19100001 10645884
0.016061645 0.0064920471 0.19100001 12880790
0.016959816 0.0064920471 0.19100001 13143188
0.017857987 0.0064920471 0.19100001 12748170
0.018756157 0.0064920471 0.19100001 12616584
0.019654326 0.0064920471 0.19100001 13473440
0.020552497 0.0064920471 0.19100001 15581129
0.02133836 0.0064580571 0.19000001 16700895
0.022231828 0.0064580571 0.19000001 15056844
0.023125295 0.0064580571 0.19000001 10580093
0.024018764 0.0064580571 0.19000001 13076370
0.024912233 0.0064580571 0.19000001 16231863
0.025805701 0.0064580571 0.19000001 16298426
0.026699169 0.0064580571 0.19000001 16762321
0.027447412 0.0064240671 0.18900001 16299205
0.028336175 0.0064240671 0.18900001 16772093
0.02922494 0.0064240671 0.18900001 16772859
0.030113706 0.0064240671 0.18900001 16770796
0.031002471 0.0064240671 0.18900001 16766429
0.031891238 0.0064240671 0.18900001 12352129
0.032606564 0.0063900775 0.18800001 11759990
0.033490628 0.0063900775 0.18800001 12287104
0.034374688 0.0063900775 0.18800001 11235445
0.035258751 0.0063900775 0.18800001 14987445
0.036142815 0.0063900775 0.18800001 15843271
0.036829926 0.0063560875 0.18700001 16766695
0.037709285 0.0063560875 0.18700001 16772855
0.038588647 0.0063560875 0.18700001 16762833
0.039468009 0.0063560875 0.18700001 14062232
0.040131606 0.006322098 0.186 14194072
0.041006263 0.006322098 0.186 14523037
0.041880921 0.006322098 0.186 14325658
0.042755578 0.006322098 0.186 14325658
0.043395665 0.006288108 0.185 15182250
0.04426562 0.006288108 0.185 13932442
0.045135576 0.006288108 0.185 12157317
0.046005532 0.006288108 0.185 11041662
0.046875488 0.006288108 0.185 7231066
0.047487359 0.0062541184 0.18400002 3682100
-0.016098756 0.0077384473 0.2 2631465
-0.015082474 0.0076997555 0.19900002 3221549
-0.014075595 0.0076610632 0.19800001 7425361
-0.013078121 0.007622371 0.19700001 12222338
-0.012090052 0.0075836787 0.19600001 13534345
-0.011168369 0.0075836787 0.19600001 13728899
-0.010246687 0.0075836787 0.19600001 12346471
-0.0093250042 0.0075836787 0.19600001 12675175
-0.0083604474 0.0075449864 0.19500001 12609895
-0.0074434676 0.0075449864 0.19500001 12347750
-0.0065599564 0.0075836787 0.19600001 12281703
-0.0056095067 0.0075449864 0.19500001 12939633
-0.004692527 0.0075449864 0.19500001 12282991
-0.0037561848 0.0075062942 0.19400001 11099230
-0.0028439073 0.0075062942 0.19400001 10902621
-0.0019316298 0.0075062942 0.19400001 9455700
-0.0010193522 0.0075062942 0.19400001 11430777
-0.00010707458 0.0075062942 0.19400001 9917788
0.00080520299 0.0075062942 0.19400001 9851480
0.0017174807 0.0075062942 0.19400001 9390929
0.0026297583 0.0075062942 0.19400001 9653331
0.0035237779 0.0074676014 0.193 8930378
0.004431353 0.0074676014 0.193 11826555
0.0053389282 0.0074676014 0.193 10777208
0.0062465039 0.0074676014 0.193 11763592
0.0071540787 0.0074676014 0.193 12025477
0.0080616539 0.0074676014 0.193 13077649
0.0089227557 0.0074289092 0.192 13274774
0.0098256283 0.0074289092 0.192 13405585
0.010728502 0.0074289092 0.192 13536401
0.011631373 0.0074289092 0.192 12221826
0.012534246 0.0074289092 0.192 15380924
0.013437119 0.0074289092 0.192 15843271
0.014265305 0.0073902179 0.19100001 11370890
0.015163477 0.0073902179 0.19100001 11764617
0.016061645 0.0073902179 0.19100001 13274260
0.016959816 0.0073902179 0.19100001 13734811
0.017857987 0.0073902179 0.19100001 13865884
0.018756157 0.0073902179 0.19100001 13208469
0.019654326 0.0073902179 0.19100001 16765147
0.020552497 0.0073902179 0.19100001 16765143
0.02133836 0.0073515251 0.19000001 16769764
0.022231828 0.0073515251 0.19000001 14727616
0.023125295 0.0073515251 0.19000001 11435140
0.024018764 0.0073515251 0.19000001 12878989
0.024912233 0.0073515251 0.19000001 16495035
0.025805701 0.0073515251 0.19000001 16759234
0.026699169 0.0073515251 0.19000001 16758205
0.027447412 0.0073128329 0.18900001 15774135
0.028336175 0.0073128329 0.18900001 15385546
0.02922494 0.0073128329 0.18900001 16639728
0.030113706 0.0073128329 0.18900001 16377069
0.031002471 0.0073128329 0.18900001 16771315
0.031891238 0.0073128329 0.18900001 14260644
0.032606564 0.0072741406 0.18800001 14390945
0.033490628 0.0072741406 0.18800001 14128540
0.034374688 0.0072741406 0.18800001 14327202
0.035258751 0.0072741406 0.18800001 14656427
0.036142815 0.0072741406 0.18800001 16765401
0.036829926 0.0072354483 0.18700001 16633049
0.037709285 0.0072354483 0.18700001 16772600
0.038588647 0.0072354483 0.18700001 13405846
0.039468009 0.0072354483 0.18700001 14260124
0.040131606 0.0071967561 0.186 14128025
0.041006263 0.0071967561 0.186 13996439
0.041880921 0.0071967561 0.186 14391451
0.042755578 0.0071967561 0.186 14786722
0.043395665 0.0071580638 0.185 14261661
0.04426562 0.0071580638 0.185 11499900
0.045135576 0.0071580638 0.185 10319224
-0.015082474 0.0086355451 0.19900002 3353135
-0.014075595 0.0085921502 0.19800001 10188153
-0.013078121 0.0085487552 0.19700001 12486534
-0.012090052 0.0085053612 0.19600001 12745084
-0.011168369 0.0085053612 0.19600001 13794694
-0.010246687 0.0085053612 0.19600001 12807538
-0.0093250042 0.0085053612 0.19600001 13201519
-0.0083604474 0.0084619662 0.19500001 13530484
-0.0074434676 0.0084619662 0.19500001 12149344
-0.0065599564 0.0085053612 0.19600001 11097431
-0.0056095067 0.0084619662 0.19500001 9322306
-0.004692527 0.0084619662 0.19500001 10902371
-0.0037561848 0.0084185712 0.19400001 10573665
-0.0028439073 0.0084185712 0.19400001 10442079
-0.0019316298 0.0084185712 0.19400001 9521493
-0.0010193522 0.0084185712 0.19400001 12418440
-0.00010707458 0.0084185712 0.19400001 10444648
0.00080520299 0.0084185712 0.19400001 11760762
0.0017174807 0.0084185712 0.19400001 10444900
0.0026297583 0.0084185712 0.19400001 10115937
0.0035237779 0.0083751762 0.193 14459050
0.004431353 0.0083751762 0.193 16765143
0.0053389282 0.0083751762 0.193 16370129
0.0062465039 0.0083751762 0.193 12093584
0.0071540787 0.0083751762 0.193 13867935
0.0080616539 0.0083751762 0.193 13997724
0.0089227557 0.0083317813 0.192 13075852
0.0098256283 0.0083317813 0.192 13470610
0.010728502 0.0083317813 0.192 13733267
0.011631373 0.0083317813 0.192 13931929
0.012534246 0.0083317813 0.192 16764882
0.013437119 0.0083317813 0.192 16766427
0.014265305 0.0082883872 0.19100001 12160406
0.015163477 0.0082883872 0.19100001 12619412
0.016061645 0.0082883872 0.19100001 13866138
0.016959816 0.0082883872 0.19100001 14918056
0.017857987 0.0082883872 0.19100001 13075598
0.018756157 0.0082883872 0.19100001 13009292
0.019654326 0.0082883872 0.19100001 13536149
0.020552497 0.0082883872 0.19100001 12681864
0.021450669 0.0082883872 0.19100001 14001063
0.022348838 0.0082883872 0.19100001 10780288
0.023125295 0.0082449932 0.19000001 11304064
0.024018764 0.0082449932 0.19000001 12484485
0.024912233 0.0082449932 0.19000001 15377322
0.025805701 0.0082449932 0.19000001 15442342
0.026699169 0.0082449932 0.19000001 15507365
0.027447412 0.0082015982 0.18900001 14916001
0.028336175 0.0082015982 0.18900001 16767452
0.02922494 0.0082015982 0.18900001 16775155
0.030113706 0.0082015982 0.18900001 16774903
0.031002471 0.0082015982 0.18900001 16770800
0.031891238 0.0082015982 0.18900001 15180978
0.032606564 0.0081582032 0.18800001 13930911
0.033490628 0.0081582032 0.18800001 12814227
0.034374688 0.0081582032 0.18800001 14459052
0.035258751 0.0081582032 0.18800001 13143190
0.036142815 0.0081582032 0.18800001 12945297
0.036829926 0.0081148082 0.18700001 16763861
0.037709285 0.0081148082 0.18700001 14721197
0.038588647 0.0081148082 0.18700001 12944782
0.039468009 0.0081148082 0.18700001 14260126
0.040347368 0.0081148082 0.18700001 13865366
0.041226726 0.0081148082 0.18700001 13601681
0.041880921 0.0080714133 0.186 11957369
0.042755578 0.0080714133 0.186 11432308
0.043395665 0.0080280192 0.185 10710382
0.04426562 0.0080280192 0.185 10450810
-0.015082474 0.0095713353 0.19900002 3483692
-0.014075595 0.0095232381 0.19800001 10121845
-0.013078121 0.0094751408 0.19700001 12485764
-0.012090052 0.0094270436 0.19600001 13139842
-0.011168369 0.0094270436 0.19600001 14715794
-0.010246687 0.0094270436 0.19600001 12807538
-0.0093250042 0.0094270436 0.19600001 14583433
-0.0083604474 0.0093789464 0.19500001 12345956
-0.0074434676 0.0093789464 0.19500001 13662329
-0.0065599564 0.0094270436 0.19600001 12282221
-0.0056095067 0.0093789464 0.19500001 11691119
-0.004692527 0.0093789464 0.19500001 11560310
-0.0037755468 0.0093789464 0.19500001 14061730
-0.0028439073 0.0093308492 0.19400001 14259874
-0.0019316298 0.0093308492 0.19400001 11299961
-0.0010193522 0.0093308492 0.19400001 12945299
-0.00010707458 0.0093308492 0.19400001 11892609
0.00080520299 0.0093308492 0.19400001 13470095
0.0017174807 0.0093308492 0.19400001 14456990
0.0026297583 0.0093308492 0.19400001 13931161
0.0035237779 0.0092827519 0.193 16762060
0.004431353 0.0092827519 0.193 16369613
0.0053389282 0.0092827519 0.193 16173528
0.0062465039 0.0092827519 0.193 12290709
0.0071540787 0.0092827519 0.193 14065314
0.0080616539 0.0092827519 0.193 14196128
0.0089227557 0.0092346547 0.192 14261407
0.0098256283 0.0092346547 0.192 14918824
0.010728502 0.0092346547 0.192 14456990
0.011631373 0.0092346547 0.192 14325658
0.012534246 0.0092346547 0.192 13405839
0.013437119 0.0092346547 0.192 13079961
0.014265305 0.0091865584 0.19100001 11502476
0.015163477 0.0091865584 0.19100001 12750998
0.016061645 0.0091865584 0.19100001 13735579
0.016959816 0.0091865584 0.19100001 13602194
0.017857987 0.0091865584 0.19100001 12877188
0.018756157 0.0091865584 0.19100001 12548993
0.019654326 0.0091865584 0.19100001 12944266
0.020552497 0.0091865584 0.19100001 12748170
0.021450669 0.0091865584 0.19100001 12290447
0.022348838 0.0091865584 0.19100001 9530223
0.023247007 0.0091865584 0.19100001 12882836
0.024145178 0.0091865584 0.19100001 13274766
0.024912233 0.0091384612 0.19000001 13536142
0.025805701 0.0091384612 0.19000001 14917025
0.026699169 0.0091384612 0.19000001 15771564
0.027592637 0.0091384612 0.19000001 15179943
0.028336175 0.009090364 0.18900001 15049127
0.02922494 0.009090364 0.18900001 14325917
0.030113706 0.009090364 0.18900001 13602194
0.031002471 0.009090364 0.18900001 14061210
0.031891238 0.009090364 0.18900001 16760522
0.032606564 0.0090422668 0.18800001 16762576
0.033490628 0.0090422668 0.18800001 14987449
0.034374688 0.0090422668 0.18800001 15053501
0.035258751 0.0090422668 0.18800001 13868196
0.036142815 0.0090422668 0.18800001 14590374
0.037026878 0.0090422668 0.18800001 13208208
0.037910938 0.0090422668 0.18800001 13404817
0.038795002 0.0090422668 0.18800001 12812678
0.039679065 0.0090422668 0.18800001 13668757
0.040347368 0.0089941695 0.18700001 12879241
0.041226726 0.0089941695 0.18700001 11827066
0.042106088 0.0089941695 0.18700001 11236213
0.042755578 0.0089460723 0.186 11105912
0.043395665 0.0088979751 0.185 8673629
-0.016098756 0.010559924 0.2 1973533
-0.015082474 0.010507125 0.19900002 3287340
-0.014075595 0.010454325 0.19800001 8216160
-0.013078121 0.010401526 0.19700001 13801372
-0.012090052 0.010348726 0.19600001 13205383
-0.011168369 0.010348726 0.19600001 13598601
-0.010246687 0.010348726 0.19600001 13531522
-0.0092774276 0.010295927 0.19500001 14386574
-0.0083604474 0.010295927 0.19500001 15373465
-0.0074434676 0.010295927 0.19500001 14518413
-0.0065599564 0.010348726 0.19600001 12480887
-0.0056095067 0.010295927 0.19500001 13270667
-0.004692527 0.010295927 0.19500001 16765410
-0.0037755468 0.010295927 0.19500001 16767460
-0.0028439073 0.010243126 0.19400001 16765405
-0.0019316298 0.010243126 0.19400001 16630989
-0.0010193522 0.010243126 0.19400001 13012374
-0.00010707458 0.010243126 0.19400001 12485260
0.00080520299 0.010243126 0.19400001 15377322
0.0017174807 0.010243126 0.19400001 15244193
0.0026297583 0.010243126 0.19400001 15310756
0.0035237779 0.010190327 0.193 16765395
0.004431353 0.010190327 0.193 16767193
0.0053389282 0.010190327 0.193 16767459
0.0062465039 0.010190327 0.193 12160147
0.0071540787 0.010190327 0.193 13013139
0.0080616539 0.010190327 0.193 13931929
0.0089692287 0.010190327 0.193 13669011
0.0098768035 0.010190327 0.193 13207690
0.010784379 0.010190327 0.193 14391964
0.011691954 0.010190327 0.193 13536142
0.012599529 0.010190327 0.193 13274253
0.013507104 0.010190327 0.193 12618381
0.014339992 0.010137527 0.192 10711927
0.015242865 0.010137527 0.192 12356240
0.016145736 0.010137527 0.192 12156547
0.01704861 0.010137527 0.192 12352897
0.017951483 0.010137527 0.192 12483713
0.018854355 0.010137527 0.192 12088955
0.019757228 0.010137527 0.192 12353410
0.020660101 0.010137527 0.192 12552075
0.021562973 0.010137527 0.192 11960969
0.022465847 0.010137527 0.192 9790315
0.023368718 0.010137527 0.192 11631232
0.024271591 0.010137527 0.192 13142926
0.02504335 0.010084728 0.19100001 13011340
0.025805701 0.010031928 0.19000001 11695994
0.026699169 0.010031928 0.19000001 13932444
0.027592637 0.010031928 0.19000001 13668759
0.028486101 0.010031928 0.19000001 14983849
0.029379569 0.010031928 0.19000001 13865366
0.030273039 0.010031928 0.19000001 14391710
0.031166507 0.010031928 0.19000001 13141130
0.032059975 0.010031928 0.19000001 14258843
0.032780003 0.0099791288 0.18900001 13471126
0.033668768 0.0099791288 0.18900001 12091270
0.034557533 0.0099791288 0.18900001 12091785
0.035446297 0.0099791288 0.18900001 12091270
0.036335062 0.0099791288 0.18900001 12485510
0.037223827 0.0099791288 0.18900001 12222338
0.038112596 0.0099791288 0.18900001 12156545
0.039001361 0.0099791288 0.18900001 11695994
0.039679065 0.0099263294 0.18800001 11234929
0.040563129 0.0099263294 0.18800001 11301236
0.041447189 0.0099263294 0.18800001 11433592
0.042106088 0.009873529 0.18700001 10842740
0.042985447 0.009873529 0.18700001 9331044
-0.015082474 0.011442916 0.19900002 2432031
-0.014075595 0.011385413 0.19800001 6177095
-0.013078121 0.011327911 0.19700001 14132390
-0.012090052 0.011270409 0.19600001 13931159
-0.011168369 0.011270409 0.19600001 13797265
-0.010246687 0.011270409 0.19600001 14717082
-0.0092774276 0.011212907 0.19500001 16756152
-0.0083604474 0.011212907 0.19500001 16756663
-0.0074434676 0.011212907 0.19500001 16757432
-0.0065599564 0.011270409 0.19600001 16558768
-0.0056095067 0.011212907 0.19500001 15441572
-0.004692527 0.011212907 0.19500001 14192028
-0.0037755468 0.011212907 0.19500001 16767465
-0.0028439073 0.011155404 0.19400001 16766432
-0.0019316298 0.011155404 0.19400001 16765915
-0.0010193522 0.011155404 0.19400001 13276829
-0.00010707458 0.011155404 0.19400001 12683920
0.00080520299 0.011155404 0.19400001 14983588
0.0017174807 0.011155404 0.19400001 15573156
0.0026297583 0.011155404 0.19400001 15179168
0.0035420358 0.011155404 0.19400001 14718617
0.0044543133 0.011155404 0.19400001 13865105
0.0053665913 0.011155404 0.19400001 12026244
0.0062788692 0.011155404 0.19400001 10974587
0.0071911463 0.011155404 0.19400001 12552588
0.0080616539 0.011097902 0.193 12681862
0.0089692287 0.011097902 0.193 13075850
0.0098768035 0.011097902 0.193 12944264
0.010784379 0.011097902 0.193 13601681
0.011691954 0.011097902 0.193 13601681
0.012599529 0.011097902 0.193 13470095
0.013507104 0.011097902 0.193 12682891
0.01441468 0.011097902 0.193 9988206
0.015322255 0.011097902 0.193 11303552
0.016229829 0.011097902 0.193 11761535
0.017137405 0.011097902 0.193 12484485
0.01804498 0.011097902 0.193 12681092
0.018952556 0.011097902 0.193 12550276
0.01986013 0.011097902 0.193 12617868
0.020767706 0.011097902 0.193 12552334
0.021675281 0.011097902 0.193 12354955
0.022582857 0.011097902 0.193 13078678
0.023490431 0.011097902 0.193 12420235
0.024271591 0.0110404 0.192 12551821
0.025174465 0.0110404 0.192 12486028
0.025941519 0.010982899 0.19100001 11895176
0.02683969 0.010982899 0.19100001 10974587
0.027592637 0.010925396 0.19000001 11301754
0.028486101 0.010925396 0.19000001 11695742
0.029379569 0.010925396 0.19000001 12024193
0.030273039 0.010925396 0.19000001 12747657
0.031166507 0.010925396 0.19000001 12418692
0.032059975 0.010925396 0.19000001 11694199
0.032953441 0.010925396 0.19000001 11892607
0.033846911 0.010925396 0.19000001 12024707
0.034740377 0.010925396 0.19000001 11695742
0.035633843 0.010925396 0.19000001 11893891
0.036527313 0.010925396 0.19000001 11894145
0.037420779 0.010925396 0.19000001 11960451
0.038314249 0.010925396 0.19000001 12026244
0.039207716 0.010925396 0.19000001 12026244
0.039890125 0.010867895 0.18900001 11565178
0.04077889 0.010867895 0.18900001 11565691
0.041667655 0.010867895 0.18900001 10974837
0.042331252 0.010810392 0.18800001 10515572
0.042985447 0.01075289 0.18700001 8740192
-0.015082474 0.012378705 0.19900002 1315610
-0.014075595 0.012316501 0.19800001 3612198
-0.013078121 0.012254296 0.19700001 10119269
-0.012090052 0.012192091 0.19600001 14129562
-0.011168369 0.012192091 0.19600001 13997206
-0.010246687 0.012192091 0.19600001 14389911
-0.0092774276 0.012129886 0.19500001 15835815
-0.0083604474 0.012129886 0.19500001 15967401
-0.0074434676 0.012129886 0.19500001 15308701
-0.0065599564 0.012192091 0.19600001 15375264
-0.0056095067 0.012129886 0.19500001 15835813
-0.004692527 0.012129886 0.19500001 15770535
-0.0037755468 0.012129886 0.19500001 13928854
-0.0028585668 0.012129886 0.19500001 16763602
-0.0019415867 0.012129886 0.19500001 14785955
-0.0010246066 0.012129886 0.19500001 14460072
-0.00010762651 0.012129886 0.19500001 12882323
0.00080935354 0.012129886 0.19500001 14721699
0.0017263338 0.012129886 0.19500001 14455702
0.0026433137 0.012129886 0.19500001 13731979
0.0035420358 0.012067682 0.19400001 13403014
0.0044543133 0.012067682 0.19400001 13666956
0.0053665913 0.012067682 0.19400001 13340559
0.0062788692 0.012067682 0.19400001 10578031
0.0071911463 0.012067682 0.19400001 11959684
0.0081034247 0.012067682 0.19400001 12222340
0.0090157017 0.012067682 0.19400001 12748170
0.0099279787 0.012067682 0.19400001 13075852
0.010840257 0.012067682 0.19400001 13075339
0.011752534 0.012067682 0.19400001 13404304
0.012664812 0.012067682 0.19400001 13075339
0.01357709 0.012067682 0.19400001 13339024
0.014489368 0.012067682 0.19400001 12749200
0.015401646 0.012067682 0.19400001 11960197
0.016313922 0.012067682 0.19400001 12223110
0.017226201 0.012067682 0.19400001 12682377
0.018138478 0.012067682 0.19400001 12747657
0.019050756 0.012067682 0.19400001 13011342
0.019963032 0.012067682 0.19400001 13143188
0.020875311 0.012067682 0.19400001 12880786
0.021787588 0.012067682 0.19400001 12683407
0.022699866 0.012067682 0.19400001 13144471
0.023612143 0.012067682 0.19400001 12551821
0.024398006 0.012005477 0.193 11762305
0.025305582 0.012005477 0.193 12091270
0.026077338 0.011943272 0.192 12421518
0.02683969 0.011881068 0.19100001 11961482
0.027737861 0.011881068 0.19100001 11500416
0.028636029 0.011881068 0.19100001 11630203
0.0295342 0.011881068 0.19100001 11827582
0.03043237 0.011881068 0.19100001 12221826
0.031330541 0.011881068 0.19100001 11761275
0.032228712 0.011881068 0.19100001 11563896
0.033126883 0.011881068 0.19100001 11761789
0.034025054 0.011881068 0.19100001 11959938
0.034923222 0.011881068 0.19100001 12091524
0.035821389 0.011881068 0.19100001 11959938
0.036719561 0.011881068 0.19100001 11039095
0.037617732 0.011881068 0.19100001 11039865
0.038515903 0.011881068 0.19100001 11237244
0.039414074 0.011881068 0.19100001 11434877
0.040101185 0.011818864 0.19000001 11698049
0.040994652 0.011818864 0.19000001 11895941
0.041667655 0.011756659 0.18900001 10515833
0.04255642 0.011756659 0.18900001 7819090
-0.015082474 0.013314495 0.19900002 8220523
-0.014075595 0.013247588 0.19800001 10911611
-0.013078121 0.013180681 0.19700001 12225670
-0.012090052 0.013113773 0.19600001 12357522
-0.011168369 0.013113773 0.19600001 11567488
-0.010246687 0.013113773 0.19600001 12814475
-0.0092774276 0.013046866 0.19500001 14325404
-0.0083604474 0.013046866 0.19500001 14522267
-0.0074434676 0.013046866 0.19500001 14324118
-0.0065599564 0.013113773 0.19600001 14455445
-0.0056095067 0.013046866 0.19500001 14850203
-0.004692527 0.013046866 0.19500001 15309982
-0.0037755468 0.013046866 0.19500001 14849431
-0.0028585668 0.013046866 0.19500001 13863563
-0.0019415867 0.013046866 0.19500001 14522265
-0.0010246066 0.013046866 0.19500001 13932696
-0.00010762651 0.013046866 0.19500001 11960449
0.00080935354 0.013046866 0.19500001 13275026
0.0017263338 0.013046866 0.19500001 12877958
0.0026433137 0.013046866 0.19500001 13009028
0.0035602937 0.013046866 0.19500001 13337993
0.0044772737 0.013046866 0.19500001 13207690
0.0053942539 0.013046866 0.19500001 13471632
0.0063112346 0.013046866 0.19500001 12879243
0.0072282143 0.013046866 0.19500001 12419205
0.0081451945 0.013046866 0.19500001 12484485
0.0090621747 0.013046866 0.19500001 13010829
0.009979154 0.013046866 0.19500001 13207438
0.010896134 0.013046866 0.19500001 13470608
0.011813114 0.013046866 0.19500001 13470608
0.012730094 0.013046866 0.19500001 13865620
0.013647075 0.013046866 0.19500001 12089725
0.014564055 0.013046866 0.19500001 13340053
0.015481035 0.013046866 0.19500001 13011602
0.016398015 0.013046866 0.19500001 13208981
0.017314995 0.013046866 0.19500001 12814477
0.018231975 0.013046866 0.19500001 12748170
0.019148955 0.013046866 0.19500001 11827328
0.020065935 0.013046866 0.19500001 12024709
0.020982916 0.013046866 0.19500001 12287881
0.021899896 0.013046866 0.19500001 12222088
0.022816876 0.013046866 0.19500001 11564926
0.023733856 0.013046866 0.19500001 12289162
0.02452442 0.012979959 0.19400001 11960197
0.025436699 0.012979959 0.19400001 11499646
0.026213158 0.012913052 0.193 12289164
0.02698021 0.012846145 0.192 12158861
0.027883084 0.012846145 0.192 11764103
0.028785953 0.012846145 0.192 12026244
0.029688828 0.012846145 0.192 12288133
0.0305917 0.012846145 0.192 12616584
0.031494573 0.012846145 0.192 11761789
0.032397445 0.012846145 0.192 11302008
0.033300318 0.012846145 0.192 11170422
0.03420319 0.012846145 0.192 11630973
0.035106063 0.012846145 0.192 11894658
0.036008935 0.012846145 0.192 12158600
0.036911808 0.012846145 0.192 11632517
0.03781468 0.012846145 0.192 10646134
0.038717553 0.012846145 0.192 10843513
0.039620429 0.012846145 0.192 10711927
0.040312245 0.012779239 0.19100001 10382962
0.041210417 0.012779239 0.19100001 8475737
0.041888118 0.012712331 0.19000001 8213078
0.04255642 0.012645424 0.18900001 7820117
-0.011111388 0.013963846 0.19500001 4206134
-0.010194408 0.013963846 0.19500001 8149600
-0.0092774276 0.013963846 0.19500001 12225418
-0.0083604474 0.013963846 0.19500001 12749706
-0.0074434676 0.013963846 0.19500001 12353664
-0.0065599564 0.014035456 0.19600001 12418174
-0.0056095067 0.013963846 0.19500001 12745856
-0.004716591 0.014035456 0.19600001 13403786
-0.0037949085 0.014035456 0.19600001 12811647
-0.0028732261 0.014035456 0.19600001 13666956
-0.0019515436 0.014035456 0.19600001 13470347
-0.0010298609 0.014035456 0.19600001 12945036
-0.00010817844 0.014035456 0.19600001 11368060
0.0008135041 0.014035456 0.19600001 12422031
0.0017351868 0.014035456 0.19600001 12025731
0.0026568694 0.014035456 0.19600001 12418690
0.0035785518 0.014035456 0.19600001 12352897
0.0045002345 0.014035456 0.19600001 12945034
0.005421917 0.014035456 0.19600001 12945034
0.0063435999 0.014035456 0.19600001 12615301
0.0072652819 0.014035456 0.19600001 12483715
0.0081869652 0.014035456 0.19600001 13141645
0.0091086468 0.014035456 0.19600001 13075852
0.010030329 0.014035456 0.19600001 13339024
0.010952013 0.014035456 0.19600001 13339022
0.011873694 0.014035456 0.19600001 13470608
0.012795377 0.014035456 0.19600001 13404817
0.01371706 0.014035456 0.19600001 11957887
0.014638742 0.014035456 0.19600001 11892094
0.015560426 0.014035456 0.19600001 12089473
0.016482107 0.014035456 0.19600001 13011088
0.017403791 0.014035456 0.19600001 13603479
0.018325472 0.014035456 0.19600001 13011342
0.019247156 0.014035456 0.19600001 11826814
0.020168837 0.014035456 0.19600001 11826816
0.021090521 0.014035456 0.19600001 11892609
0.022012204 0.014035456 0.19600001 11892609
0.022933885 0.014035456 0.19600001 11433342
0.023855567 0.014035456 0.19600001 11828613
0.024650836 0.013963846 0.19500001 11368062
0.025567817 0.013963846 0.19500001 11894406
0.026348976 0.013892237 0.19400001 12289164
0.027120734 0.013820628 0.193 11829898
0.028028307 0.013820628 0.193 12225170
0.028935881 0.013820628 0.193 12290447
0.029843457 0.013820628 0.193 12486282
0.030751033 0.013820628 0.193 12223110
0.031658608 0.013820628 0.193 12025731
0.032566182 0.013820628 0.193 11433853
0.03347376 0.013820628 0.193 11433853
0.034381334 0.013820628 0.193 11170681
0.035288908 0.013820628 0.193 11763588
0.036196481 0.013820628 0.193 11697797
0.037104059 0.013820628 0.193 11434625
0.038011633 0.013820628 0.193 11369343
0.03891921 0.013820628 0.193 10909046
0.039826784 0.013820628 0.193 10185583
0.040734358 0.013820628 0.193 9660009
0.041426174 0.013749017 0.192 8870493
0.042108584 0.013677409 0.19100001 8410457
-0.0092774276 0.014880827 0.19500001 4928058
-0.0083604474 0.014880827 0.19500001 9202542
-0.0074434676 0.014880827 0.19500001 11634053
-0.0065599564 0.014957139 0.19600001 12024959
-0.0056382739 0.014957139 0.19600001 13010829
-0.004716591 0.014957139 0.19600001 13339022
-0.0037949085 0.014957139 0.19600001 13404556
-0.0028732261 0.014957139 0.19600001 12681346
-0.0019515436 0.014957139 0.19600001 12682116
-0.0010298609 0.014957139 0.19600001 12682377
-0.00010817844 0.014957139 0.19600001 13144471
0.0008135041 0.014957139 0.19600001 10843513
0.0017351868 0.014957139 0.19600001 12948114
0.0026704248 0.015033451 0.19700001 12617096
0.0035968097 0.015033451 0.19700001 12419203
0.0045231949 0.015033451 0.19700001 12483713
0.0054495796 0.015033451 0.19700001 12220543
0.0063759652 0.015033451 0.19700001 12154750
0.0073023499 0.015033451 0.19700001 12417922
0.0082287351 0.015033451 0.19700001 13272718
0.0091551198 0.015033451 0.19700001 13404302
0.010081504 0.015033451 0.19700001 13535888
0.01100789 0.015033451 0.19700001 13404302
0.011934275 0.015033451 0.19700001 13008774
0.01286066 0.015033451 0.19700001 12548993
0.013787045 0.015033451 0.19700001 12285823
0.01471343 0.015033451 0.19700001 12154237
0.015639815 0.015033451 0.19700001 12417155
0.0165662 0.015033451 0.19700001 12482948
0.017492585 0.015033451 0.19700001 13010575
0.01841897 0.015033451 0.19700001 13273747
0.019345356 0.015033451 0.19700001 12550028
0.020271739 0.015033451 0.19700001 11958402
0.021198126 0.015033451 0.19700001 11892609
0.02212451 0.015033451 0.19700001 11695230
0.023050897 0.015033451 0.19700001 11761537
0.02397728 0.015033451 0.19700001 12091270
0.02477725 0.014957139 0.19600001 11828611
0.025698934 0.014957139 0.19600001 12091783
0.026484797 0.014880827 0.19500001 12289164
0.027261255 0.014804515 0.19400001 11500933
0.028173532 0.014804515 0.19400001 12554913
0.028935881 0.014728203 0.193 12027537
0.029843457 0.014728203 0.193 12487311
0.030910363 0.014804515 0.19400001 12618381
0.03182264 0.014804515 0.19400001 11828865
0.032734919 0.014804515 0.19400001 11105912
0.033647198 0.014804515 0.19400001 11237757
0.034559477 0.014804515 0.19400001 11369343
0.035471752 0.014804515 0.19400001 11237757
0.036384027 0.014804515 0.19400001 11171964
0.037296306 0.014804515 0.19400001 11303550
0.038208585 0.014804515 0.19400001 11369597
0.039120864 0.014804515 0.19400001 11172216
0.040033139 0.014804515 0.19400001 9659493
0.040734358 0.014728203 0.193 9068126
0.041426174 0.014651891 0.192 8673627
-0.0074434676 0.015797807 0.19500001 5849927
-0.0065599564 0.015878823 0.19600001 10780802
-0.0056382739 0.015878823 0.19600001 11698049
-0.0047406554 0.015959837 0.19700001 12945547
-0.0038142703 0.015959837 0.19700001 13340559
-0.0028878856 0.015959837 0.19700001 13472145
-0.0019615004 0.015959837 0.19700001 13472145
-0.0010351153 0.015959837 0.19700001 13471891
-0.00010873038 0.015959837 0.19700001 13077649
0.0008176546 0.015959837 0.19700001 12420489
0.0017440397 0.015959837 0.19700001 11762557
0.0026839804 0.01604085 0.19800001 11695480
0.0036150676 0.01604085 0.19800001 11563894
0.0045461552 0.01604085 0.19800001 11891578
0.0054772426 0.01604085 0.19800001 12022651
0.0064083305 0.01604085 0.19800001 13075852
0.0073394175 0.01604085 0.19800001 13404817
0.0082705058 0.01604085 0.19800001 13667987
0.0092015928 0.01604085 0.19800001 13536401
0.01013268 0.01604085 0.19800001 13141130
0.011063768 0.01604085 0.19800001 12943751
0.011994855 0.01604085 0.19800001 12746372
0.012925942 0.01604085 0.19800001 12943751
0.01385703 0.01604085 0.19800001 12614788
0.014788118 0.01604085 0.19800001 12483202
0.015719205 0.01604085 0.19800001 12483202
0.016650293 0.01604085 0.19800001 12154750
0.017581381 0.01604085 0.19800001 12023934
0.018512469 0.01604085 0.19800001 11957887
0.019443557 0.01604085 0.19800001 12418438
0.020374643 0.01604085 0.19800001 12353672
0.021305731 0.01604085 0.19800001 12880016
0.022236818 0.01604085 0.19800001 12814223
0.023167906 0.01604085 0.19800001 12222340
0.024098992 0.01604085 0.19800001 13077649
0.024903666 0.015959837 0.19700001 12748684
0.025830051 0.015959837 0.19700001 12814477
0.026620617 0.015878823 0.19600001 12091270
0.027401777 0.015797807 0.19500001 11500420
0.028318757 0.015797807 0.19500001 11172747
0.029085808 0.015716793 0.19400001 11831192
0.029998086 0.015716793 0.19400001 11829898
0.031069696 0.015797807 0.19500001 11763588
0.031986676 0.015797807 0.19500001 11500670
0.032903656 0.015797807 0.19500001 11500670
0.033820637 0.015797807 0.19500001 11895428
0.034737617 0.015797807 0.19500001 11895941
0.035654597 0.015797807 0.19500001 11895941
0.036571577 0.015797807 0.19500001 11501697
0.037488557 0.015797807 0.19500001 11501697
0.038405538 0.015797807 0.19500001 10646134
0.039322518 0.015797807 0.19500001 10252146
0.040033139 0.015716793 0.19400001 9265764
0.040945418 0.015716793 0.19400001 8608604
-0.0056382739 0.016800504 0.19600001 8676457
-0.0047406554 0.016886221 0.19700001 11831691
-0.0038336322 0.016971938 0.19800001 11698049
-0.0029025448 0.016971938 0.19800001 12026244
-0.0019714574 0.016971938 0.19800001 12880270
-0.0010403697 0.016971938 0.19800001 13077649
-0.00010928231 0.016971938 0.19800001 13011342
0.00082180515 0.016971938 0.19800001 12945549
0.0017528927 0.016971938 0.19800001 12748170
0.0026975358 0.017057655 0.19900002 12221311
0.0036333255 0.017057655 0.19900002 11826553
0.0045691156 0.017057655 0.19900002 12483715
0.0055049057 0.017057655 0.19900002 13339024
0.0064406958 0.017057655 0.19900002 13667989
0.0073764855 0.017057655 0.19900002 13602196
0.0083122756 0.017057655 0.19900002 13602196
0.0092480658 0.017057655 0.19900002 13208208
0.010183855 0.017057655 0.19900002 12879243
0.011119645 0.017057655 0.19900002 12813450
0.012055435 0.017057655 0.19900002 12418692
0.012991224 0.017057655 0.19900002 12089727
0.013927015 0.017057655 0.19900002 12550024
0.014862806 0.017057655 0.19900002 12944012
0.015798597 0.017057655 0.19900002 13141391
0.016734384 0.017057655 0.19900002 12812426
0.017670175 0.017057655 0.19900002 12681864
0.018605966 0.017057655 0.19900002 11563129
0.019541755 0.017057655 0.19900002 11432572
0.020477545 0.017057655 0.19900002 12486028
0.021413336 0.017057655 0.19900002 12157063
0.022349125 0.017057655 0.19900002 12091270
0.023284916 0.017057655 0.19900002 12682891
0.024220705 0.017057655 0.19900002 12485510
0.02503008 0.016971938 0.19800001 12222338
0.025961168 0.016971938 0.19800001 11827580
0.026756436 0.016886221 0.19700001 11695994
0.027542299 0.016800504 0.19600001 11894145
0.028463982 0.016800504 0.19600001 11698058
0.029235736 0.016714787 0.19500001 12160155
0.030152716 0.016714787 0.19500001 11765648
0.031229028 0.016800504 0.19600001 11830410
0.032150712 0.016800504 0.19600001 12224652
0.033072393 0.016800504 0.19600001 12290699
0.033994079 0.016800504 0.19600001 11369597
0.03491576 0.016800504 0.19600001 11632769
0.035837442 0.016800504 0.19600001 11303804
0.036759123 0.016800504 0.19600001 10580595
0.037680805 0.016800504 0.19600001 9791595
0.03860249 0.016800504 0.19600001 9989487
0.039524172 0.016800504 0.19600001 9528936
0.040239498 0.016714787 0.19500001 9200741
0.041156478 0.016714787 0.19500001 8675428
-0.0047647199 0.017903026 0.19800001 4994878
-0.0038529939 0.017993445 0.19900002 10254976
-0.0029172043 0.017993445 0.19900002 12160143
-0.0019814142 0.017993445 0.19900002 12159113
-0.0010456241 0.017993445 0.19900002 12224393
-0.00010983424 0.017993445 0.19900002 12025731
0.00082595571 0.017993445 0.19900002 12090752
0.0017617458 0.017993445 0.19900002 12353924
0.002711091 0.018083863 0.2 12813961
0.0036515833 0.018083863 0.2 12417922
0.0045920755 0.018083863 0.2 12352129
0.0055325679 0.018083863 0.2 12418692
0.0064730607 0.018083863 0.2 12747657
0.0074135526 0.018083863 0.2 13076622
0.0083540455 0.018083863 0.2 13339794
0.0092945378 0.018083863 0.2 11760762
0.010235029 0.018083863 0.2 12352899
0.011175523 0.018083863 0.2 11826814
0.012116014 0.018083863 0.2 11958400
0.013056506 0.018083863 0.2 11760510
0.013996999 0.018083863 0.2 12023680
0.014937492 0.018083863 0.2 12023680
0.015877984 0.018083863 0.2 12220289
0.016818477 0.018083863 0.2 12550278
0.017758969 0.018083863 0.2 12747657
0.018699462 0.018083863 0.2 12287106
0.019639954 0.018083863 0.2 12748430
0.020580446 0.018083863 0.2 12157063
0.021520939 0.018083863 0.2 11893891
0.022461431 0.018083863 0.2 11433340
0.023401923 0.018083863 0.2 12486028
0.024342416 0.018083863 0.2 12486282
0.025282908 0.018083863 0.2 12354696
0.026223401 0.018083863 0.2 12223110
0.027028076 0.017993445 0.19900002 12091524
0.027823344 0.017903026 0.19800001 12421000
0.028609207 0.017812606 0.19700001 11435390
0.029385662 0.017722186 0.19600001 12029074
0.030307345 0.017722186 0.19600001 10450558
0.031229028 0.017722186 0.19600001 10450040
0.032314748 0.017812606 0.19700001 10646906
0.03324113 0.017812606 0.19700001 11173248
0.034167517 0.017812606 0.19700001 11370881
0.035093904 0.017812606 0.19700001 10976123
0.036020283 0.017812606 0.19700001 10581111
0.036946669 0.017812606 0.19700001 10384245
0.037873056 0.017812606 0.19700001 9069155
0.038799442 0.017812606 0.19700001 9003875
0.039524172 0.017722186 0.19600001 8872805
0.040445853 0.017722186 0.19600001 8479332
-0.0038529939 0.018929236 0.19900002 3942960
-0.0029172043 0.018929236 0.19900002 6505290
-0.0019913709 0.019024355 0.2 10911876
-0.0010508785 0.019024355 0.2 11831691
-0.00011038617 0.019024355 0.2 11239295
0.0008342567 0.019119479 0.20100001 12290697
0.0017794516 0.019119479 0.20100001 12947344
0.0027246466 0.019119479 0.20100001 12552327
0.0036698412 0.019119479 0.20100001 12354178
0.0046379967 0.0192146 0.20200001 12945801
0.005587894 0.0192146 0.20200001 13274512
0.0065377913 0.0192146 0.20200001 13208721
0.0074876887 0.0192146 0.20200001 12156033
0.008437586 0.0192146 0.20200001 12089727
0.0093874829 0.0192146 0.20200001 12023934
0.01033738 0.0192146 0.20200001 11761021
0.011287278 0.0192146 0.20200001 11037298
0.012237174 0.0192146 0.20200001 11235191
0.013187071 0.0192146 0.20200001 11761021
0.014136969 0.0192146 0.20200001 12616584
0.015086867 0.0192146 0.20200001 12484998
0.016036766 0.0192146 0.20200001 11892861
0.016986661 0.0192146 0.20200001 12089473
0.017936559 0.0192146 0.20200001 12024193
0.018886456 0.0192146 0.20200001 11893121
0.019836355 0.0192146 0.20200001 11761535
0.02078625 0.0192146 0.20200001 11762305
0.021736149 0.0192146 0.20200001 11959684
0.022686046 0.0192146 0.20200001 12157063
0.023635944 0.0192146 0.20200001 12091270
0.024585839 0.0192146 0.20200001 12355209
0.025535738 0.0192146 0.20200001 12224393
0.026354518 0.019119479 0.20100001 11961221
0.027299713 0.019119479 0.20100001 11830148
0.028104385 0.019024355 0.2 11500929
0.028754432 0.018834114 0.19800001 11633029
0.02953559 0.018738991 0.19700001 11305347
0.030307345 0.018643869 0.19600001 12162457
0.031229028 0.018643869 0.19600001 11240839
0.032314748 0.018738991 0.19700001 10450810
0.03324113 0.018738991 0.19700001 10516603
0.034167517 0.018738991 0.19700001 10450810
0.035272043 0.018834114 0.19800001 10385528
0.036203127 0.018834114 0.19800001 9267049
0.037134215 0.018834114 0.19800001 8741219
0.038065303 0.018834114 0.19800001 8676196
0.038996391 0.018834114 0.19800001 8018781
-0.0029172043 0.019865027 0.19900002 2760996
-0.0019913709 0.01996485 0.2 2823709
-0.0010508785 0.01996485 0.2 7953504
-0.0001109381 0.020064672 0.20100001 10320249
0.0008342567 0.020064672 0.20100001 10121843
0.0017794516 0.020064672 0.20100001 10580343
0.002738202 0.020164497 0.20200001 11369857
0.0036880991 0.020164497 0.20200001 11961221
0.004660957 0.020264322 0.20300001 11697279
0.0056155566 0.020264322 0.20300001 11894145
0.0065701571 0.020264322 0.20300001 12025731
0.0075618243 0.020364147 0.20400001 12024961
0.0085211266 0.020364147 0.20400001 11827582
0.0094804289 0.020364147 0.20400001 11893121
0.01043973 0.020364147 0.20400001 11695742
0.011399033 0.020364147 0.20400001 11038582
0.012358335 0.020364147 0.20400001 11630973
0.013317637 0.020364147 0.20400001 12551305
0.014276939 0.020364147 0.20400001 12353926
0.015236243 0.020364147 0.20400001 12156547
0.016195545 0.020364147 0.20400001 12157063
0.017154846 0.020364147 0.20400001 12157063
0.01811415 0.020364147 0.20400001 11696512
0.019073451 0.020364147 0.20400001 11696512
0.020032754 0.020364147 0.20400001 11959686
0.020992056 0.020364147 0.20400001 10775410
0.021951359 0.020364147 0.20400001 11960197
0.02291066 0.020364147 0.20400001 12289416
0.023869963 0.020364147 0.20400001 11960451
0.024829265 0.020364147 0.20400001 11566463
0.025788568 0.020364147 0.20400001 10712951
0.026616752 0.020264322 0.20300001 10975869
0.027571352 0.020264322 0.20300001 10646904
0.028525952 0.020264322 0.20300001 10975869
0.029335327 0.020164497 0.20200001 10581624
0.029685516 0.019765202 0.19800001 10450808
0.030307345 0.019565552 0.19600001 10518915
0.031229028 0.019565552 0.19600001 9598329
0.032314748 0.019665377 0.19700001 10320251
0.03324113 0.019665377 0.19700001 10320251
0.034167517 0.019665377 0.19700001 10188665
0.035272043 0.019765202 0.19800001 10123642
0.036203127 0.019765202 0.19800001 9597813
0.037134215 0.019765202 0.19800001 8545125
0.038065303 0.019765202 0.19800001 7098449
0.039193343 0.019865027 0.19900002 7032656
0.0008342567 0.021009866 0.20100001 8215393
0.0017883047 0.021114394 0.20200001 10780290
0.002738202 0.021114394 0.20200001 10714495
0.0037063572 0.02121892 0.20300001 10582396
0.0046839174 0.021323448 0.20400001 11502467
0.0056432197 0.021323448 0.20400001 11370881
0.0066025225 0.021323448 0.20400001 11172732
0.0075988919 0.021427974 0.20500001 11303804
0.0085628973 0.021427974 0.20500001 11632769
0.0095269019 0.021427974 0.20500001 11895174
0.010490905 0.021427974 0.20500001 11960967
0.011454911 0.021427974 0.20500001 12026760
0.012418916 0.021427974 0.20500001 11566209
0.01338292 0.021427974 0.20500001 11434623
0.014346925 0.021427974 0.20500001 11697279
0.01531093 0.021427974 0.20500001 11631486
0.016274935 0.021427974 0.20500001 11368314
0.017238939 0.021427974 0.20500001 11105142
0.018202944 0.021427974 0.20500001 11039095
0.019166948 0.021427974 0.20500001 12289162
0.020130955 0.021427974 0.20500001 11368060
0.021094957 0.021427974 0.20500001 11369084
0.022058962 0.021427974 0.20500001 12421002
0.023135275 0.021532502 0.20600002 11698049
0.024103982 0.021532502 0.20600002 10974839
0.025072688 0.021532502 0.20600002 10448755
0.026041396 0.021532502 0.20600002 10120560
0.026878987 0.021427974 0.20500001 10450038
0.027842993 0.021427974 0.20500001 10976382
0.028806997 0.021427974 0.20500001 10911359
0.029916227 0.021532502 0.20600002 10714493
0.030884931 0.021532502 0.20600002 10320249
0.031229028 0.020487234 0.19600001 10915474
0.0027517574 0.02217352 0.20300001 7229265
0.0037246151 0.022282749 0.20400001 9136747
0.0047068777 0.022391981 0.20500001 8872803
0.0056708823 0.022391981 0.20500001 10121843
0.0066348878 0.022391981 0.20500001 10911613
0.0075988919 0.022391981 0.20500001 11305601
0.0086046671 0.02250121 0.20600002 11371394
0.0095733739 0.02250121 0.20600002 11634053
0.010542081 0.02250121 0.20600002 11502213
0.011510788 0.02250121 0.20600002 11239041
0.012479495 0.02250121 0.20600002 11173248
0.013448202 0.02250121 0.20600002 11041662
0.01441691 0.02250121 0.20600002 10777974
0.015385618 0.02250121 0.20600002 11040632
0.016354324 0.02250121 0.20600002 10843253
0.017323032 0.02250121 0.20600002 10843253
0.01829174 0.02250121 0.20600002 11303804
0.019260446 0.02250121 0.20600002 11501183
0.020229153 0.02250121 0.20600002 11369597
0.021197861 0.02250121 0.20600002 11369597
0.022166567 0.02250121 0.20600002 10909046
0.023247583 0.022610439 0.20700002 10843767
0.024220992 0.022610439 0.20700002 10778744
0.025194401 0.022610439 0.20700002 10450038
0.026167812 0.022610439 0.20700002 11107968
0.027141221 0.022610439 0.20700002 10845568
0.028114632 0.022610439 0.20700002 10714495
0.029088041 0.022610439 0.20700002 10977667
