# .PCD v0.7 - Point Cloud Data file format
VERSION 0.7
FIELDS x y z rgb
SIZE 4 4 4 4
TYPE F F F U
COUNT 1 1 1 1
WIDTH 1116
HEIGHT 1
VIEWPOINT 0 0 0 1 0 0 0
POINTS 1116
DATA ascii
0.0055021015 0.014571865 0.17 13018284
0.0063015199 0.014571865 0.17 12095896
0.0071427091 0.014657582 0.171 13473436
0.0079468293 0.014657582 0.171 13799827
0.00875095 0.014657582 0.171 14391962
0.0095550716 0.014657582 0.171 15049379
0.010359192 0.014657582 0.171 14718874
0.011163313 0.014657582 0.171 15705512
0.011967435 0.014657582 0.171 14915998
0.012771556 0.014657582 0.171 13864337
0.013575677 0.014657582 0.171 13407384
0.014379798 0.014657582 0.171 11832465
0.015183918 0.014657582 0.171 12423317
0.015988039 0.014657582 0.171 13866649
0.016890362 0.014743299 0.17200001 13272970
0.017699184 0.014743299 0.17200001 13403016
0.018508008 0.014743299 0.17200001 13403532
0.019316832 0.014743299 0.17200001 12614786
0.020125655 0.014743299 0.17200001 13667987
0.020934477 0.014743299 0.17200001 13011342
0.021743301 0.014743299 0.17200001 12947094
0.022552125 0.014743299 0.17200001 10450812
0.023360949 0.014743299 0.17200001 12159375
0.024169773 0.014743299 0.17200001 13340819
0.024978597 0.014743299 0.17200001 13930900
0.025787417 0.014743299 0.17200001 13994896
0.026596241 0.014743299 0.17200001 16494008
0.027405065 0.014743299 0.17200001 16231863
0.028213888 0.014743299 0.17200001 15313332
0.029022712 0.014743299 0.17200001 16773108
0.029831536 0.014743299 0.17200001 16776183
0.03064036 0.014743299 0.17200001 16775923
0.03144918 0.014743299 0.17200001 16765393
0.032258004 0.014743299 0.17200001 15246508
0.033066828 0.014743299 0.17200001 16035000
0.033875652 0.014743299 0.17200001 14522015
0.034684476 0.014743299 0.17200001 14588060
0.035493299 0.014743299 0.17200001 15640748
0.036302123 0.014743299 0.17200001 13995669
0.037110947 0.014743299 0.17200001 13402764
0.037919771 0.014743299 0.17200001 16563397
0.038728595 0.014743299 0.17200001 16768999
0.039537419 0.014743299 0.17200001 14258843
0.040346242 0.014743299 0.17200001 16624563
0.041155066 0.014743299 0.17200001 16493743
0.041719913 0.014657582 0.171 16296877
0.042524032 0.014657582 0.171 15376545
0.043328155 0.014657582 0.171 16692407
0.044132274 0.014657582 0.171 16496057
0.044936396 0.014657582 0.171 14854830
0.045740515 0.014657582 0.171 6897736
0.046544634 0.014657582 0.171 5389123
0.047625653 0.014743299 0.17200001 4472386
-0.016082199 0.015371284 0.17 3814707
-0.015192882 0.015280865 0.16900001 8420469
-0.014398166 0.015280865 0.16900001 10983566
-0.01360345 0.015280865 0.16900001 12819862
-0.012884525 0.015371284 0.17 11762807
-0.012085106 0.015371284 0.17 13208458
-0.011285687 0.015371284 0.17 13930900
-0.010486269 0.015371284 0.17 15901869
-0.0096868509 0.015371284 0.17 16757693
-0.0088874316 0.015371284 0.17 16759490
-0.0080880141 0.015371284 0.17 15835817
-0.0072885947 0.015371284 0.17 15506080
-0.0064891768 0.015371284 0.17 16361387
-0.0056897579 0.015371284 0.17 16756402
-0.0048903394 0.015371284 0.17 16624559
-0.0040909206 0.015371284 0.17 15902639
-0.0032915021 0.015371284 0.17 15246254
-0.0024920837 0.015371284 0.17 16561596
-0.0016926653 0.015371284 0.17 15904690
-0.00089324673 0.015371284 0.17 14921136
-9.3828239e-05 0.015371284 0.17 14855343
0.00070559024 0.015371284 0.17 16628413
0.0015050089 0.015371284 0.17 16692409
0.002317983 0.015461703 0.171 14850203
0.0031221036 0.015461703 0.171 15309984
0.0039262245 0.015461703 0.171 14652054
0.0047303457 0.015461703 0.171 15115174
0.0055344668 0.015461703 0.171 12686491
0.0063385875 0.015461703 0.171 11173765
0.0071427091 0.015461703 0.171 13012372
0.0079468293 0.015461703 0.171 13602196
0.00875095 0.015461703 0.171 13799573
0.0095550716 0.015461703 0.171 13535888
0.010359192 0.015461703 0.171 14785185
0.011163313 0.015461703 0.171 14916255
0.011967435 0.015461703 0.171 14587290
0.012771556 0.015461703 0.171 14128025
0.013575677 0.015461703 0.171 13209753
0.014379798 0.015461703 0.171 10383995
0.015272713 0.015552123 0.17200001 12751512
0.016081538 0.015552123 0.17200001 13010059
0.016890362 0.015552123 0.17200001 12746372
0.017699184 0.015552123 0.17200001 13008774
0.018508008 0.015552123 0.17200001 13075339
0.019316832 0.015552123 0.17200001 12944266
0.020125655 0.015552123 0.17200001 12813963
0.020934477 0.015552123 0.17200001 12682891
0.021743301 0.015552123 0.17200001 11567240
0.022552125 0.015552123 0.17200001 9661296
0.023360949 0.015552123 0.17200001 12553104
0.024169773 0.015552123 0.17200001 13341589
0.024978597 0.015552123 0.17200001 13603731
0.025787417 0.015552123 0.17200001 13800597
0.026596241 0.015552123 0.17200001 14784415
0.027405065 0.015552123 0.17200001 16495033
0.028213888 0.015552123 0.17200001 16298426
0.029022712 0.015552123 0.17200001 16760260
0.029831536 0.015552123 0.17200001 16103359
0.03064036 0.015552123 0.17200001 16762314
0.03144918 0.015552123 0.17200001 16765657
0.032258004 0.015552123 0.17200001 15772852
0.033066828 0.015552123 0.17200001 15707059
0.033875652 0.015552123 0.17200001 16496575
0.034684476 0.015552123 0.17200001 15707059
0.035493299 0.015552123 0.17200001 15444398
0.036302123 0.015552123 0.17200001 15444139
0.037110947 0.015552123 0.17200001 15573931
0.037919771 0.015552123 0.17200001 14652572
0.038728595 0.015552123 0.17200001 14652574
0.039537419 0.015552123 0.17200001 14849951
0.040346242 0.015552123 0.17200001 15835817
0.041155066 0.015552123 0.17200001 16231086
0.041719913 0.015461703 0.171 14981789
0.042524032 0.015461703 0.171 13863563
0.043328155 0.015461703 0.171 13207686
0.044132274 0.015461703 0.171 13605794
-0.01528278 0.016170703 0.17 2696488
-0.014483362 0.016170703 0.17 2628897
-0.013683942 0.016170703 0.17 5520700
-0.012884525 0.016170703 0.17 10648952
-0.012085106 0.016170703 0.17 12487045
-0.011285687 0.016170703 0.17 12287869
-0.010486269 0.016170703 0.17 12548993
-0.0096868509 0.016170703 0.17 13797517
-0.0088874316 0.016170703 0.17 14125710
-0.0080880141 0.016170703 0.17 14519955
-0.0073314691 0.016265824 0.171 14454162
-0.0065273484 0.016265824 0.171 14519953
-0.0057232268 0.016265824 0.171 14847632
-0.0049191061 0.016265824 0.171 16097447
-0.004114985 0.016265824 0.171 15309473
-0.0033108641 0.016265824 0.171 14981021
-0.0025067432 0.016265824 0.171 15244191
-0.0017026222 0.016265824 0.171 15376804
-0.00089850114 0.016265824 0.171 14525865
-9.4380172e-05 0.016265824 0.171 12881553
0.00070974079 0.016265824 0.171 14852002
0.0015138618 0.016265824 0.171 14192275
0.002317983 0.016265824 0.171 14192273
0.0031221036 0.016265824 0.171 14060687
0.0039262245 0.016265824 0.171 14389909
0.0047303457 0.016265824 0.171 14457244
0.0055344668 0.016265824 0.171 11894406
0.0063385875 0.016265824 0.171 11499648
0.0071427091 0.016265824 0.171 12879502
0.0079933023 0.016360946 0.17200001 13010829
0.0088021252 0.016360946 0.17200001 13339024
0.0096109491 0.016360946 0.17200001 13667476
0.010419773 0.016360946 0.17200001 13798290
0.011228596 0.016360946 0.17200001 13995669
0.01203742 0.016360946 0.17200001 13863313
0.012846244 0.016360946 0.17200001 13666704
0.013655067 0.016360946 0.17200001 12485260
0.014463889 0.016360946 0.17200001 10645111
0.015272713 0.016360946 0.17200001 11828613
0.016081538 0.016360946 0.17200001 12418951
0.016890362 0.016360946 0.17200001 13075852
0.017699184 0.016360946 0.17200001 13141645
0.018508008 0.016360946 0.17200001 13404563
0.019316832 0.016360946 0.17200001 13799575
0.020125655 0.016360946 0.17200001 13668759
0.020934477 0.016360946 0.17200001 12880270
0.021743301 0.016360946 0.17200001 11960967
0.022552125 0.016360946 0.17200001 10974072
0.023360949 0.016360946 0.17200001 11960197
0.024169773 0.016360946 0.17200001 12420489
0.024978597 0.016360946 0.17200001 12814477
0.025787417 0.016360946 0.17200001 11762559
0.026596241 0.016360946 0.17200001 12026760
0.027405065 0.016360946 0.17200001 13734552
0.028213888 0.016360946 0.17200001 14916771
0.029022712 0.016360946 0.17200001 15376552
0.029831536 0.016360946 0.17200001 14916773
0.03064036 0.016360946 0.17200001 14982566
0.03144918 0.016360946 0.17200001 14456992
0.032258004 0.016360946 0.17200001 15312299
0.033066828 0.016360946 0.17200001 14523296
0.033875652 0.016360946 0.17200001 14391710
0.034684476 0.016360946 0.17200001 15904951
0.035493299 0.016360946 0.17200001 14523298
0.036302123 0.016360946 0.17200001 15049642
0.037110947 0.016360946 0.17200001 14522013
0.037919771 0.016360946 0.17200001 14192278
0.038728595 0.016360946 0.17200001 14258068
0.039537419 0.016360946 0.17200001 13994894
0.040346242 0.016360946 0.17200001 15113632
0.041155066 0.016360946 0.17200001 13995921
0.041719913 0.016265824 0.171 13536142
0.042524032 0.016265824 0.171 13603731
0.043328155 0.016265824 0.171 12884381
-0.015372679 0.017069945 0.171 2303527
-0.014483362 0.016970122 0.17 2434345
-0.013683942 0.016970122 0.17 2367523
-0.012960317 0.017069945 0.171 6442829
-0.012156195 0.017069945 0.171 11305853
-0.011352073 0.017069945 0.171 11369334
-0.010547953 0.017069945 0.171 12354178
-0.0097438321 0.017069945 0.171 13406352
-0.0089397114 0.017069945 0.171 13076104
-0.0081355907 0.017069945 0.171 13074821
-0.0073314691 0.017069945 0.171 13205380
-0.0065273484 0.017069945 0.171 13402757
-0.0057232268 0.017069945 0.171 13862538
-0.0049191061 0.017069945 0.171 14323091
-0.004114985 0.017069945 0.171 13599884
-0.0033108641 0.017069945 0.171 14389657
-0.0025067432 0.017069945 0.171 14324888
-0.0017026222 0.017069945 0.171 14457757
-0.00090375554 0.01716977 0.17200001 13473177
-9.4932104e-05 0.01716977 0.17200001 12355209
0.00071389129 0.01716977 0.17200001 12879243
0.0015227149 0.01716977 0.17200001 12746372
0.0023315384 0.01716977 0.17200001 13666956
0.0031403617 0.01716977 0.17200001 13995921
0.0039491849 0.01716977 0.17200001 13798544
0.0047580088 0.01716977 0.17200001 14193818
0.0055668326 0.01716977 0.17200001 13471126
0.0063756555 0.01716977 0.17200001 13076370
0.0071844794 0.01716977 0.17200001 13075598
0.0079933023 0.01716977 0.17200001 13865368
0.0088021252 0.01716977 0.17200001 13536142
0.0096109491 0.01716977 0.17200001 13536142
0.010419773 0.01716977 0.17200001 13733521
0.011228596 0.01716977 0.17200001 13404556
0.01203742 0.01716977 0.17200001 13667474
0.012846244 0.01716977 0.17200001 13865366
0.013655067 0.01716977 0.17200001 13011088
0.014463889 0.01716977 0.17200001 12683407
0.015272713 0.01716977 0.17200001 12616330
0.016081538 0.01716977 0.17200001 12813196
0.016890362 0.01716977 0.17200001 13734298
0.017699184 0.01716977 0.17200001 13405333
0.018508008 0.01716977 0.17200001 13669018
0.019316832 0.01716977 0.17200001 13800345
0.020125655 0.01716977 0.17200001 13340307
0.020934477 0.01716977 0.17200001 13210005
0.021743301 0.01716977 0.17200001 13473690
0.022552125 0.01716977 0.17200001 13012885
0.023360949 0.01716977 0.17200001 12420235
0.024169773 0.01716977 0.17200001 12749200
0.024978597 0.01716977 0.17200001 12420489
0.025787417 0.01716977 0.17200001 12025477
0.026596241 0.01716977 0.17200001 11369345
0.027405065 0.01716977 0.17200001 11763592
0.028213888 0.01716977 0.17200001 12353158
0.029022712 0.01716977 0.17200001 12615301
0.029831536 0.01716977 0.17200001 13864855
0.03064036 0.01716977 0.17200001 13864855
0.03144918 0.01716977 0.17200001 13930646
0.032258004 0.01716977 0.17200001 12878471
0.033066828 0.01716977 0.17200001 13010057
0.033875652 0.01716977 0.17200001 12220541
0.034684476 0.01716977 0.17200001 12221313
0.035493299 0.01716977 0.17200001 12352899
0.036302123 0.01716977 0.17200001 12879243
0.037110947 0.01716977 0.17200001 13010829
0.037919771 0.01716977 0.17200001 13141645
0.038728595 0.01716977 0.17200001 13141130
0.039537419 0.01716977 0.17200001 12483454
0.040346242 0.01716977 0.17200001 12352381
0.041155066 0.01716977 0.17200001 12747909
0.041719913 0.017069945 0.171 13867933
0.042524032 0.017069945 0.171 10385278
-0.015372679 0.017874066 0.171 3751743
-0.014568558 0.017874066 0.171 3816766
-0.013683942 0.01776954 0.17 2565929
-0.012960317 0.017874066 0.171 3221547
-0.012156195 0.017874066 0.171 7098447
-0.01141846 0.017978592 0.17200001 11041914
-0.010609637 0.017978592 0.17200001 10974837
-0.0098008141 0.017978592 0.17200001 11631486
-0.0089919902 0.017978592 0.17200001 12354696
-0.0081831673 0.017978592 0.17200001 12550276
-0.007374343 0.017978592 0.17200001 14193302
-0.0065655201 0.017978592 0.17200001 14127509
-0.0057566962 0.017978592 0.17200001 13864337
-0.0049478728 0.017978592 0.17200001 13404556
-0.0041390494 0.017978592 0.17200001 13075591
-0.0033302258 0.017978592 0.17200001 13404556
-0.0025214024 0.017978592 0.17200001 13404302
-0.001712579 0.017978592 0.17200001 13207436
-0.00090900995 0.01808312 0.17300001 11762559
-9.5484036e-05 0.01808312 0.17300001 12618127
0.00071804185 0.01808312 0.17300001 12420489
0.0015315679 0.01808312 0.17300001 12813448
0.0023450938 0.01808312 0.17300001 13075337
0.0031586196 0.01808312 0.17300001 13074567
0.0039721457 0.01808312 0.17300001 13667476
0.0047856714 0.01808312 0.17300001 13667222
0.0055991979 0.01808312 0.17300001 12813198
0.0064127236 0.01808312 0.17300001 13076370
0.0072262497 0.01808312 0.17300001 13010575
0.0080397753 0.01808312 0.17300001 13470097
0.0088533005 0.01808312 0.17300001 13996439
0.0096668275 0.01808312 0.17300001 13865107
0.010480353 0.01808312 0.17300001 14062999
0.011293879 0.01808312 0.17300001 13931413
0.012107405 0.01808312 0.17300001 13799575
0.012920931 0.01808312 0.17300001 12549508
0.013734457 0.01808312 0.17300001 13669272
0.014547982 0.01808312 0.17300001 13538200
0.015361508 0.01808312 0.17300001 13471893
0.016175035 0.01808312 0.17300001 13273747
0.016988561 0.01808312 0.17300001 12682377
0.017802086 0.01808312 0.17300001 12485258
0.018615613 0.01808312 0.17300001 12418953
0.019429138 0.01808312 0.17300001 13603225
0.020242665 0.01808312 0.17300001 13274774
0.02105619 0.01808312 0.17300001 13012885
0.021869715 0.01808312 0.17300001 12683920
0.022683242 0.01808312 0.17300001 12091783
0.023496769 0.01808312 0.17300001 11959686
0.024310295 0.01808312 0.17300001 12222086
0.025123822 0.01808312 0.17300001 12682637
0.025937345 0.01808312 0.17300001 12486028
0.026750872 0.01808312 0.17300001 11895689
0.027564397 0.01808312 0.17300001 11501447
0.028377924 0.01808312 0.17300001 11762307
0.029191449 0.01808312 0.17300001 12287365
0.030004976 0.01808312 0.17300001 12418951
0.030818501 0.01808312 0.17300001 11958141
0.031632025 0.01808312 0.17300001 12023932
0.032445554 0.01808312 0.17300001 12352897
0.033259079 0.01808312 0.17300001 13075850
0.034072604 0.01808312 0.17300001 13075850
0.034886129 0.01808312 0.17300001 12616582
0.035493299 0.017978592 0.17200001 12682375
0.036302123 0.017978592 0.17200001 12682375
0.037110947 0.017978592 0.17200001 13142926
0.037919771 0.017978592 0.17200001 13274512
0.038728595 0.017978592 0.17200001 13340305
0.039537419 0.017978592 0.17200001 12353412
0.040346242 0.017978592 0.17200001 13078932
0.041155066 0.017978592 0.17200001 12226190
0.041963886 0.017978592 0.17200001 9992571
-0.012960317 0.018678186 0.171 4671307
-0.012156195 0.018678186 0.171 5851210
-0.011484846 0.018896647 0.17300001 8345945
-0.010671321 0.018896647 0.17300001 10515318
-0.0098577952 0.018896647 0.17300001 11040892
-0.0090442691 0.018896647 0.17300001 11698308
-0.0082307439 0.018896647 0.17300001 11894658
-0.0074172174 0.018896647 0.17300001 12813448
-0.0066036917 0.018896647 0.17300001 13601681
-0.0057901656 0.018896647 0.17300001 14193818
-0.0049766395 0.018896647 0.17300001 14128025
-0.0041631134 0.018896647 0.17300001 14128025
-0.0033495876 0.018896647 0.17300001 13535888
-0.0025360619 0.018896647 0.17300001 13865107
-0.0017225359 0.018896647 0.17300001 13800597
-0.00091426435 0.019005876 0.17400001 11566209
-9.6035968e-05 0.019005876 0.17400001 12487824
0.0007221924 0.019005876 0.17400001 13144212
0.0015404209 0.019005876 0.17400001 13142928
0.0023586494 0.019005876 0.17400001 12944266
0.0031768775 0.019005876 0.17400001 13141645
0.0039951061 0.019005876 0.17400001 12548995
0.0048133344 0.019005876 0.17400001 12548741
0.0056315633 0.019005876 0.17400001 12812428
0.0064497911 0.019005876 0.17400001 13405848
0.00726802 0.019005876 0.17400001 13405587
0.0080862483 0.019005876 0.17400001 13339792
0.0089044757 0.019005876 0.17400001 13667987
0.009722705 0.019005876 0.17400001 13799573
0.010540933 0.019005876 0.17400001 13537171
0.011359161 0.019005876 0.17400001 13603477
0.01217739 0.019005876 0.17400001 12287106
0.012995618 0.019005876 0.17400001 11892861
0.013813848 0.019005876 0.17400001 12813709
0.014632075 0.019005876 0.17400001 13142674
0.015450303 0.019005876 0.17400001 13800091
0.016268533 0.019005876 0.17400001 13536919
0.017086761 0.019005876 0.17400001 12484746
0.017904988 0.019005876 0.17400001 11761537
0.018723218 0.019005876 0.17400001 12418953
0.019541446 0.019005876 0.17400001 12418951
0.020359674 0.019005876 0.17400001 12353672
0.021177903 0.019005876 0.17400001 11630719
0.021996131 0.019005876 0.17400001 12486543
0.02281436 0.019005876 0.17400001 12354957
0.023632588 0.019005876 0.17400001 11828613
0.024450816 0.019005876 0.17400001 11892607
0.025269046 0.019005876 0.17400001 12813963
0.026087271 0.019005876 0.17400001 12682891
0.026905501 0.019005876 0.17400001 12158346
0.027564397 0.018896647 0.17300001 12093068
0.028377924 0.018896647 0.17300001 12289164
0.029191449 0.018896647 0.17300001 12287879
0.030004976 0.018896647 0.17300001 12221572
0.030818501 0.018896647 0.17300001 11958654
0.031632025 0.018896647 0.17300001 11892861
0.032445554 0.018896647 0.17300001 12221826
0.033259079 0.018896647 0.17300001 12616584
0.034072604 0.018896647 0.17300001 12748170
0.034886129 0.018896647 0.17300001 12617098
0.035699658 0.018896647 0.17300001 12024961
0.036513183 0.018896647 0.17300001 12156547
0.037326708 0.018896647 0.17300001 12617098
0.038140234 0.018896647 0.17300001 12814475
0.038728595 0.018787416 0.17200001 12486280
0.039537419 0.018787416 0.17200001 12486795
0.040346242 0.018787416 0.17200001 12949659
0.041155066 0.018787416 0.17200001 8809328
-0.0131119 0.019710172 0.17300001 3685952
-0.012298373 0.019710172 0.17300001 5261132
-0.011484846 0.019710172 0.17300001 8019551
-0.010671321 0.019710172 0.17300001 9463913
-0.0099147772 0.019824104 0.17400001 10252659
-0.009096548 0.019824104 0.17400001 11370881
-0.0082783205 0.019824104 0.17400001 11303804
-0.0074600917 0.019824104 0.17400001 11499385
-0.0066418634 0.019824104 0.17400001 12682889
-0.0058236346 0.019824104 0.17400001 13208206
-0.0050054062 0.019824104 0.17400001 13866136
-0.0041871779 0.019824104 0.17400001 14260124
-0.0033689495 0.019824104 0.17400001 14260124
-0.0025507212 0.019824104 0.17400001 13996952
-0.0017324928 0.019824104 0.17400001 13734811
-0.00091951876 0.019938037 0.17500001 11236474
-9.6587901e-05 0.019938037 0.17500001 11696766
0.00072634296 0.019938037 0.17500001 13010829
0.001549274 0.019938037 0.17500001 12681092
0.0023722048 0.019938037 0.17500001 12417407
0.0031951356 0.019938037 0.17500001 12285823
0.0040180665 0.019938037 0.17500001 12548995
0.0048409975 0.019938037 0.17500001 12680581
0.0056639286 0.019938037 0.17500001 12943499
0.0064868592 0.019938037 0.17500001 13469843
0.0073097902 0.019938037 0.17500001 13732497
0.0081327204 0.019938037 0.17500001 13798290
0.008955651 0.019938037 0.17500001 14062232
0.0097785825 0.019938037 0.17500001 13535888
0.010601513 0.019938037 0.17500001 12615301
0.011424444 0.019938037 0.17500001 12615047
0.012247375 0.019938037 0.17500001 12024193
0.013070306 0.019938037 0.17500001 11826814
0.013893237 0.019938037 0.17500001 12155779
0.014716167 0.019938037 0.17500001 12878991
0.015539099 0.019938037 0.17500001 13734300
0.01636203 0.019938037 0.17500001 13603227
0.017184962 0.019938037 0.17500001 12287369
0.018007891 0.019938037 0.17500001 11826818
0.018830823 0.019938037 0.17500001 12287367
0.019653752 0.019938037 0.17500001 12023680
0.020476684 0.019938037 0.17500001 11958654
0.021299614 0.019938037 0.17500001 11695996
0.022122545 0.019938037 0.17500001 11762305
0.022945477 0.019938037 0.17500001 11499646
0.023768408 0.019938037 0.17500001 11894404
0.02459134 0.019938037 0.17500001 12092037
0.025414271 0.019938037 0.17500001 12354696
0.026237199 0.019938037 0.17500001 12090754
0.026905501 0.019824104 0.17400001 12420489
0.02772373 0.019824104 0.17400001 12882582
0.028541958 0.019824104 0.17400001 12224656
0.029360186 0.019824104 0.17400001 12683407
0.030178415 0.019824104 0.17400001 12024961
0.030818501 0.019710172 0.17300001 11695996
0.031632025 0.019710172 0.17300001 11432824
0.0326331 0.019824104 0.17400001 11630973
0.033259079 0.019710172 0.17300001 12420489
0.034269556 0.019824104 0.17400001 12617868
0.035087787 0.019824104 0.17400001 12223110
0.035906013 0.019824104 0.17400001 11236728
0.036513183 0.019710172 0.17300001 11369084
0.037326708 0.019710172 0.17300001 11763842
0.038140234 0.019710172 0.17300001 12027012
0.038953759 0.019710172 0.17300001 12750735
0.039767288 0.019710172 0.17300001 12160143
0.040346242 0.01959624 0.17200001 6571600
-0.013187691 0.020642333 0.17400001 3159354
-0.012369462 0.020642333 0.17400001 4210756
-0.011484846 0.020523699 0.17300001 7233115
-0.010671321 0.020523699 0.17300001 7755092
-0.0099147772 0.020642333 0.17400001 10714234
-0.0091488278 0.020760966 0.17500001 10647156
-0.0083258972 0.020760966 0.17500001 11962246
-0.0075029656 0.020760966 0.17500001 11698047
-0.006680035 0.020760966 0.17500001 12091522
-0.005857104 0.020760966 0.17500001 12353410
-0.0050341729 0.020760966 0.17500001 12944782
-0.0042112423 0.020760966 0.17500001 13799575
-0.0033883112 0.020760966 0.17500001 13931159
-0.0025653804 0.020760966 0.17500001 13800343
-0.0017424496 0.020760966 0.17500001 13340305
-0.00092477317 0.020879602 0.17600001 12484998
-9.7139826e-05 0.020879602 0.17600001 12287106
0.00073049346 0.020879602 0.17600001 12088957
0.0015581269 0.020879602 0.17600001 12088444
0.0023857602 0.020879602 0.17600001 11956858
0.0032133935 0.020879602 0.17600001 12417922
0.0040410268 0.020879602 0.17600001 13010059
0.0048686601 0.020879602 0.17600001 13536403
0.0056962939 0.020879602 0.17600001 13601683
0.0065239267 0.020879602 0.17600001 13930646
0.0073515605 0.020879602 0.17600001 13666704
0.0081791934 0.020879602 0.17600001 13271946
0.0090068262 0.020879602 0.17600001 13206923
0.00983446 0.020879602 0.17600001 13075852
0.010662094 0.020879602 0.17600001 12944012
0.011489727 0.020879602 0.17600001 12549256
0.01231736 0.020879602 0.17600001 12286852
0.013144994 0.020879602 0.17600001 12221059
0.013972627 0.020879602 0.17600001 12417668
0.01480026 0.020879602 0.17600001 12352645
0.015627893 0.020879602 0.17600001 13076370
0.016455527 0.020879602 0.17600001 13208469
0.01728316 0.020879602 0.17600001 12878991
0.018110793 0.020879602 0.17600001 11892609
0.018938428 0.020879602 0.17600001 11826814
0.019766061 0.020879602 0.17600001 11695482
0.020593693 0.020879602 0.17600001 11958654
0.021421326 0.020879602 0.17600001 11827582
0.022248961 0.020879602 0.17600001 11564926
0.023076594 0.020879602 0.17600001 11433853
0.023904229 0.020879602 0.17600001 12157576
0.024731861 0.020879602 0.17600001 12025990
0.025559494 0.020879602 0.17600001 11894404
0.026237199 0.020760966 0.17500001 12683407
0.027060131 0.020760966 0.17500001 13013139
0.027883062 0.020760966 0.17500001 12882586
0.028705992 0.020760966 0.17500001 12685469
0.029528923 0.020760966 0.17500001 12026762
0.030178415 0.020642333 0.17400001 12486795
0.031174786 0.020760966 0.17500001 12353926
0.031814869 0.020642333 0.17400001 11630973
0.0326331 0.020642333 0.17400001 11565180
0.033451326 0.020642333 0.17400001 11894145
0.034466509 0.020760966 0.17500001 12486795
0.03528944 0.020760966 0.17500001 12684174
0.035906013 0.020642333 0.17400001 12289416
0.036724243 0.020642333 0.17400001 11303291
0.03754247 0.020642333 0.17400001 11764355
0.038360696 0.020642333 0.17400001 11831178
0.039178926 0.020642333 0.17400001 9069670
0.039767288 0.020523699 0.17300001 5520195
-0.011551233 0.021460561 0.17400001 5654596
-0.0099717584 0.021583896 0.17500001 8675424
-0.0092011066 0.021707233 0.17600001 9990511
-0.0083734738 0.021707233 0.17600001 10515572
-0.00754584 0.021707233 0.17600001 11172732
-0.0067182067 0.021707233 0.17600001 12027012
-0.0058905729 0.021707233 0.17600001 12420487
-0.0050629396 0.021707233 0.17600001 12288131
-0.0042353063 0.021707233 0.17600001 13208206
-0.003407673 0.021707233 0.17600001 13273999
-0.0025800399 0.021707233 0.17600001 13076622
-0.0017524065 0.021707233 0.17600001 13011342
-0.00093002745 0.021830568 0.177 12748170
-9.7691751e-05 0.021830568 0.177 12616584
0.00073464395 0.021830568 0.177 12352899
0.0015669798 0.021830568 0.177 12352899
0.0023993156 0.021830568 0.177 13667474
0.0032316511 0.021830568 0.177 14457503
0.0040639867 0.021830568 0.177 13996954
0.0048963227 0.021830568 0.177 13537173
0.0057286588 0.021830568 0.177 13800343
0.0065609943 0.021830568 0.177 13537171
0.0073933303 0.021830568 0.177 13076104
0.0082256654 0.021830568 0.177 13404556
0.0090580015 0.021830568 0.177 13009798
0.0098903375 0.021830568 0.177 13141897
0.010722673 0.021830568 0.177 13404817
0.011555008 0.021830568 0.177 12812680
0.012387345 0.021830568 0.177 12614788
0.013219681 0.021830568 0.177 12482948
0.014052017 0.021830568 0.177 12482948
0.014884351 0.021830568 0.177 12680327
0.015716687 0.021830568 0.177 11957887
0.016549023 0.021830568 0.177 12484231
0.017381359 0.021830568 0.177 12484744
0.018213695 0.021830568 0.177 12155779
0.019046031 0.021830568 0.177 11892607
0.019878367 0.021830568 0.177 11827328
0.020710703 0.021830568 0.177 12090500
0.021543037 0.021830568 0.177 12814225
0.022375373 0.021830568 0.177 12617616
0.023207709 0.021830568 0.177 12025992
0.024040045 0.021830568 0.177 12026762
0.024872381 0.021830568 0.177 12158348
0.025704717 0.021830568 0.177 11631234
0.026387125 0.021707233 0.17600001 12486541
0.02721476 0.021707233 0.17600001 12683920
0.028042393 0.021707233 0.17600001 12816791
0.028705992 0.021583896 0.17500001 13212843
0.029528923 0.021583896 0.17500001 11172228
0.030351855 0.021583896 0.17500001 11170935
0.031174786 0.021583896 0.17500001 11631486
0.031997714 0.021583896 0.17500001 11960451
0.032820646 0.021583896 0.17500001 11960451
0.033643577 0.021583896 0.17500001 11697279
0.034466509 0.021583896 0.17500001 11368060
0.03528944 0.021583896 0.17500001 11828611
0.036112372 0.021583896 0.17500001 11895174
0.036935303 0.021583896 0.17500001 11172480
0.037758235 0.021583896 0.17500001 10384247
0.038581163 0.021583896 0.17500001 9268848
-0.010856373 0.022534866 0.17600001 6573388
-0.0099717584 0.022406828 0.17500001 7820887
-0.0092533845 0.022662904 0.177 8477531
-0.0084686261 0.022790942 0.178 9529706
-0.0075887134 0.022662904 0.177 10251376
-0.0067563779 0.022662904 0.177 11764869
-0.0059240418 0.022662904 0.177 12157830
-0.0050917063 0.022662904 0.177 12421000
-0.0042593703 0.022662904 0.177 12552073
-0.0034270345 0.022662904 0.177 12156545
-0.0025946989 0.022662904 0.177 12551303
-0.0017723201 0.022790942 0.178 12353924
-0.00093528186 0.022790942 0.178 12879756
-9.8243683e-05 0.022790942 0.178 13274514
0.00073879451 0.022790942 0.178 12550278
0.0015758328 0.022790942 0.178 12352897
0.002412871 0.022790942 0.178 13075850
0.003249909 0.022790942 0.178 13076620
0.0040869475 0.022790942 0.178 13340305
0.0049239853 0.022790942 0.178 13406100
0.0057610241 0.022790942 0.178 13143442
0.0065980619 0.022790942 0.178 13143440
0.0074351006 0.022790942 0.178 12747655
0.0082721384 0.022790942 0.178 12945034
0.0091091767 0.022790942 0.178 12550278
0.009946215 0.022790942 0.178 12221313
0.010783253 0.022790942 0.178 12418690
0.011620291 0.022790942 0.178 13667474
0.012457329 0.022790942 0.178 14325406
0.013294368 0.022790942 0.178 13009546
0.014131406 0.022790942 0.178 12681094
0.014968444 0.022790942 0.178 12483715
0.015805483 0.022790942 0.178 11497590
0.01664252 0.022790942 0.178 12023680
0.017479559 0.022790942 0.178 12616844
0.018316597 0.022790942 0.178 12880270
0.019153636 0.022790942 0.178 13143442
0.019990673 0.022790942 0.178 11762559
0.020827712 0.022790942 0.178 12617868
0.02166475 0.022790942 0.178 12946833
0.022501787 0.022790942 0.178 12552588
0.023338826 0.022790942 0.178 12486541
0.024175866 0.022790942 0.178 11960967
0.025012903 0.022790942 0.178 11368832
0.025849942 0.022790942 0.178 11368832
0.026537051 0.022662904 0.177 12157576
0.027369387 0.022662904 0.177 12815506
0.028042393 0.022534866 0.17600001 12356238
0.028870028 0.022534866 0.17600001 12424350
0.02969766 0.022534866 0.17600001 12161176
0.030525295 0.022534866 0.17600001 11961996
0.03135293 0.022534866 0.17600001 11829894
0.032180559 0.022534866 0.17600001 10908792
0.033008192 0.022534866 0.17600001 10842486
0.033835828 0.022534866 0.17600001 11895174
0.034663461 0.022534866 0.17600001 11500416
0.035491094 0.022534866 0.17600001 12026760
0.036318727 0.022534866 0.17600001 11764617
0.036935303 0.022406828 0.17500001 10186868
-0.010142703 0.023627982 0.178 6966859
-0.0093579432 0.023760723 0.17900001 8083287
-0.0085162027 0.023760723 0.17900001 9069668
-0.0076744617 0.023760723 0.17900001 10121073
-0.0068327212 0.023760723 0.17900001 10777720
-0.0059575113 0.023627982 0.178 11632769
-0.005120473 0.023627982 0.178 11895941
-0.0042834347 0.023627982 0.178 12027014
-0.0034463964 0.023627982 0.178 12158600
-0.0026240177 0.023760723 0.17900001 12685196
-0.001782277 0.023760723 0.17900001 12947598
-0.00094053627 0.023760723 0.17900001 12947598
-9.8795615e-05 0.023760723 0.17900001 12749706
0.00074294501 0.023760723 0.17900001 12221824
0.0015846859 0.023760723 0.17900001 13011340
0.0024264266 0.023760723 0.17900001 12879754
0.0032681671 0.023760723 0.17900001 13011340
0.0041099079 0.023760723 0.17900001 13142926
0.0049516484 0.023760723 0.17900001 12879756
0.0057933894 0.023760723 0.17900001 12353926
0.0066351299 0.023760723 0.17900001 12090754
0.0074768709 0.023760723 0.17900001 12157317
0.0083186114 0.023760723 0.17900001 12157317
0.0091603519 0.023760723 0.17900001 11761021
0.010002092 0.023760723 0.17900001 12287365
0.010843833 0.023760723 0.17900001 12221311
0.011685573 0.023760723 0.17900001 12417920
0.012527314 0.023760723 0.17900001 13141645
0.013369055 0.023760723 0.17900001 13208208
0.014210797 0.023760723 0.17900001 12945036
0.015052537 0.023760723 0.17900001 12747657
0.015894277 0.023760723 0.17900001 12352899
0.016736018 0.023760723 0.17900001 11695482
0.01757776 0.023760723 0.17900001 12420235
0.018419499 0.023760723 0.17900001 12684174
0.019261241 0.023760723 0.17900001 12618381
0.020102981 0.023760723 0.17900001 12815760
0.020944722 0.023760723 0.17900001 12485510
0.021786463 0.023760723 0.17900001 12288131
0.022628203 0.023760723 0.17900001 11696764
0.023469944 0.023760723 0.17900001 11631486
0.024311684 0.023760723 0.17900001 11499646
0.025153426 0.023760723 0.17900001 11697025
0.025995167 0.023760723 0.17900001 11433853
0.026686978 0.023627982 0.178 11960451
0.027524017 0.023627982 0.178 11434107
0.028201723 0.02349524 0.177 11565693
0.028870028 0.023362501 0.17600001 10910593
0.029866396 0.02349524 0.177 12688801
0.030698732 0.02349524 0.177 11634314
0.031531069 0.02349524 0.177 11831178
0.0323634 0.02349524 0.177 11764615
0.033195738 0.02349524 0.177 11830408
0.034028072 0.02349524 0.177 11830408
0.03486041 0.02349524 0.177 11698822
0.035491094 0.023362501 0.17600001 10975871
0.036318727 0.023362501 0.17600001 9134950
-0.010142703 0.024465021 0.178 7032654
-0.0094625009 0.024877353 0.18100001 8215897
-0.0086113559 0.024877353 0.18100001 8017234
-0.00776021 0.024877353 0.18100001 9135715
-0.0068708933 0.024739908 0.18000001 9858671
-0.0060244496 0.024739908 0.18000001 10910589
-0.0051780064 0.024739908 0.18000001 10778490
-0.0043315631 0.024739908 0.18000001 10252146
-0.0034657582 0.024602463 0.17900001 10778490
-0.0026386771 0.024739908 0.18000001 11895939
-0.0017922339 0.024739908 0.18000001 12356490
-0.00094579067 0.024739908 0.18000001 12355207
-9.9347548e-05 0.024739908 0.18000001 12026242
0.00074709556 0.024739908 0.18000001 12552073
0.0015935388 0.024739908 0.18000001 13077647
0.002439982 0.024739908 0.18000001 13011854
0.003286425 0.024739908 0.18000001 12353410
0.0041328683 0.024739908 0.18000001 12353410
0.0049793115 0.024739908 0.18000001 12353410
0.0058257547 0.024739908 0.18000001 12288131
0.0066721975 0.024739908 0.18000001 11762559
0.0075186412 0.024739908 0.18000001 11368314
0.0083650844 0.024739908 0.18000001 11236474
0.0092115272 0.024739908 0.18000001 11564410
0.01005797 0.024739908 0.18000001 12616584
0.010904414 0.024739908 0.18000001 12418690
0.011750856 0.024739908 0.18000001 12550276
0.012597299 0.024739908 0.18000001 12287104
0.013443743 0.024739908 0.18000001 12418690
0.014290187 0.024739908 0.18000001 12748170
0.015136628 0.024739908 0.18000001 12024447
0.015983073 0.024739908 0.18000001 12945549
0.016829515 0.024739908 0.18000001 12682891
0.017675959 0.024739908 0.18000001 12091524
0.018522402 0.024739908 0.18000001 11301754
0.019368844 0.024739908 0.18000001 12222856
0.020215288 0.024739908 0.18000001 12486282
0.021061732 0.024739908 0.18000001 12288133
0.021908173 0.024739908 0.18000001 12288131
0.022754617 0.024739908 0.18000001 12091522
0.023601061 0.024739908 0.18000001 11960449
0.024447504 0.024739908 0.18000001 11894658
0.025293948 0.024739908 0.18000001 11631486
0.026140392 0.024739908 0.18000001 11565693
0.026836906 0.024602463 0.17900001 11828865
0.027678646 0.024602463 0.17900001 12289416
0.028361056 0.024465021 0.178 11830148
0.029198093 0.024465021 0.178 12094867
0.029866396 0.024327576 0.177 13346477
0.030698732 0.024327576 0.177 11174794
0.031531069 0.024327576 0.177 11634314
0.0323634 0.024327576 0.177 11239041
0.033195738 0.024327576 0.177 10777720
0.034028072 0.024327576 0.177 10251378
0.03486041 0.024327576 0.177 10055282
0.035491094 0.024190133 0.17600001 9267051
-0.0096193384 0.026154939 0.18400002 7229515
-0.0087540857 0.026154939 0.18400002 8611168
-0.0078888331 0.026154939 0.18400002 8676448
-0.0069090649 0.025728498 0.18100001 9202022
-0.0060913879 0.025870645 0.18200001 9990259
-0.0052355397 0.025870645 0.18200001 10450810
-0.0043556276 0.025728498 0.18100001 10319222
-0.0035044819 0.025728498 0.18100001 10713210
-0.0026533364 0.025728498 0.18100001 11172218
-0.0018021908 0.025728498 0.18100001 12026244
-0.00095104508 0.025728498 0.18100001 12552075
-9.989948e-05 0.025728498 0.18100001 12025731
0.00075124612 0.025728498 0.18100001 11894145
0.0016023918 0.025728498 0.18100001 12420489
0.0024535374 0.025728498 0.18100001 12157317
0.0033046829 0.025728498 0.18100001 11894145
0.0041558286 0.025728498 0.18100001 11696766
0.0050069741 0.025728498 0.18100001 11695996
0.00585812 0.025728498 0.18100001 11565180
0.0067092655 0.025728498 0.18100001 11433594
0.0075604115 0.025728498 0.18100001 10710130
0.0084115565 0.025728498 0.18100001 11499133
0.0092627024 0.025728498 0.18100001 12156293
0.010113848 0.025728498 0.18100001 12682891
0.010964993 0.025728498 0.18100001 12485510
0.011816138 0.025728498 0.18100001 11630201
0.012667284 0.025728498 0.18100001 11827582
0.01351843 0.025728498 0.18100001 11695996
0.014369576 0.025728498 0.18100001 11893375
0.015220721 0.025728498 0.18100001 11695742
0.016071867 0.025728498 0.18100001 11433594
0.016923014 0.025728498 0.18100001 12420489
0.017774159 0.025728498 0.18100001 12420235
0.018625304 0.025728498 0.18100001 12025479
0.019476449 0.025728498 0.18100001 12486028
0.020327596 0.025728498 0.18100001 12421002
0.021178741 0.025728498 0.18100001 12157830
0.022029886 0.025728498 0.18100001 12025990
0.022881033 0.025728498 0.18100001 11960451
0.023732178 0.025728498 0.18100001 12092037
0.024583325 0.025728498 0.18100001 11434105
0.02543447 0.025728498 0.18100001 11303289
0.026285617 0.025728498 0.18100001 11040117
0.026986832 0.025586352 0.18000001 10842740
0.027833275 0.025586352 0.18000001 10842999
0.028520387 0.025444206 0.17900001 11369859
0.029198093 0.025302058 0.178 11502730
0.030035133 0.025302058 0.178 11438480
0.030872172 0.025302058 0.178 10517380
0.031709209 0.025302058 0.178 10253431
0.032546245 0.025302058 0.178 10450040
0.033383284 0.025302058 0.178 10450038
0.034220323 0.025302058 0.178 10121843
0.03486041 0.025159912 0.177 9597300
-0.011658264 0.027754435 0.18900001 4145731
-0.010826481 0.027901284 0.19000001 5456963
-0.0098284548 0.027607586 0.18800001 6572614
-0.008849239 0.027313888 0.186 7295054
-0.0079745799 0.027313888 0.186 7624019
-0.0069854083 0.026873343 0.18300001 8479328
-0.0061583263 0.027020192 0.18400002 9202540
-0.0052643064 0.026873343 0.18300001 10648702
-0.004403756 0.026873343 0.18300001 10714493
-0.0035432056 0.026873343 0.18300001 10714493
-0.0026679956 0.026726494 0.18200001 10977152
-0.0018121476 0.026726494 0.18200001 11370627
-0.00095629948 0.026726494 0.18200001 12159113
-0.00010045141 0.026726494 0.18200001 12355979
0.00075539667 0.026726494 0.18200001 11828865
0.0016112449 0.026726494 0.18200001 11697025
0.0024670931 0.026726494 0.18200001 11697025
0.003322941 0.026726494 0.18200001 11960197
0.004178789 0.026726494 0.18200001 11960197
0.0050346372 0.026726494 0.18200001 11960197
0.0058904854 0.026726494 0.18200001 11960197
0.0067463336 0.026726494 0.18200001 11828611
0.0076021818 0.026726494 0.18200001 11960197
0.0084580295 0.026726494 0.18200001 12354955
0.0093138777 0.026726494 0.18200001 12354955
0.010169726 0.026726494 0.18200001 11960451
0.011025574 0.026726494 0.18200001 11961221
0.011881421 0.026726494 0.18200001 11895174
0.01273727 0.026726494 0.18200001 11894404
0.013593119 0.026726494 0.18200001 11894404
0.014448967 0.026726494 0.18200001 12026244
0.015304814 0.026726494 0.18200001 12026244
0.016160663 0.026726494 0.18200001 11697279
0.017016511 0.026726494 0.18200001 11960451
0.01787236 0.026726494 0.18200001 12223110
0.018728206 0.026726494 0.18200001 12091524
0.019584054 0.026726494 0.18200001 12355209
0.020439902 0.026726494 0.18200001 12289162
0.021295752 0.026726494 0.18200001 11895687
0.022151599 0.026726494 0.18200001 11895687
0.023007447 0.026726494 0.18200001 11435138
0.023863295 0.026726494 0.18200001 11369343
0.024719143 0.026726494 0.18200001 11435390
0.025574993 0.026726494 0.18200001 11501183
0.026430842 0.026726494 0.18200001 11303804
0.02713676 0.026579645 0.18100001 10974839
0.027987905 0.026579645 0.18100001 10580081
0.028520387 0.026285946 0.17900001 10908792
0.029198093 0.026139097 0.178 11305349
0.030035133 0.026139097 0.178 10386562
0.030872172 0.026139097 0.178 11570838
0.031709209 0.026139097 0.178 9793655
0.032546245 0.026139097 0.178 9530223
0.033383284 0.026139097 0.178 9464942
-0.011658264 0.028643202 0.18900001 2896434
-0.010883463 0.028946305 0.19100001 4011063
-0.0099330125 0.028794752 0.19000001 6574413
-0.0089919688 0.028643202 0.18900001 6376007
-0.0080603287 0.02849165 0.18800001 7098449
-0.0062252646 0.028188547 0.186 8545891
-0.0053218398 0.028036995 0.185 8281438
-0.0044518844 0.028036995 0.185 9662319
-0.0035625673 0.027885446 0.18400002 10057077
-0.0026973144 0.027885446 0.18400002 10254456
-0.0018320613 0.027885446 0.18400002 10714493
-0.00096680829 0.027885446 0.18400002 10975869
-0.00010100334 0.027733894 0.18300001 11106685
0.00075954717 0.027733894 0.18300001 11238271
0.0016200979 0.027733894 0.18300001 11304064
0.0024806485 0.027733894 0.18300001 11698822
0.0033411989 0.027733894 0.18300001 11698822
0.0042017493 0.027733894 0.18300001 11961994
0.0050623002 0.027733894 0.18300001 11698822
0.0059228512 0.027733894 0.18300001 12093066
0.0067834011 0.027733894 0.18300001 11500929
0.007643952 0.027733894 0.18300001 11434623
0.0085045025 0.027733894 0.18300001 11434623
0.0093650529 0.027733894 0.18300001 11763588
0.010225603 0.027733894 0.18300001 11698308
0.011086154 0.027733894 0.18300001 11698308
0.011946704 0.027733894 0.18300001 11237244
0.012807255 0.027733894 0.18300001 10316396
0.013667806 0.027733894 0.18300001 10315626
0.014528356 0.027733894 0.18300001 11105912
0.015388906 0.027733894 0.18300001 10579568
0.016249457 0.027733894 0.18300001 11433853
0.017110009 0.027733894 0.18300001 12355207
0.017970558 0.027733894 0.18300001 12157830
0.01883111 0.027733894 0.18300001 11434877
0.019691659 0.027733894 0.18300001 11566209
0.020552211 0.027733894 0.18300001 11369345
0.021412762 0.027733894 0.18300001 11304066
0.022273311 0.027733894 0.18300001 11633031
0.023133863 0.027733894 0.18300001 11238273
0.023994412 0.027733894 0.18300001 10910076
0.024854964 0.027733894 0.18300001 10581111
0.025715515 0.027733894 0.18300001 10646904
0.026576066 0.027733894 0.18300001 10646904
0.027436614 0.027733894 0.18300001 10646904
0.028297165 0.027733894 0.18300001 10449527
0.028679719 0.027279239 0.18000001 10054769
0.030035133 0.026976136 0.178 9332844
0.030872172 0.026976136 0.178 10519180
0.031709209 0.026976136 0.178 9006194
0.032546245 0.026976136 0.178 9202803
0.033383284 0.026976136 0.178 8809326
-0.010883463 0.029844476 0.19100001 3092273
-0.0099852914 0.029844476 0.19100001 3878703
-0.0090395454 0.02968822 0.19000001 6575185
-0.008103203 0.029531967 0.18900001 6047044
-0.0073289522 0.030000728 0.192 7033169
-0.006292203 0.029375713 0.18800001 9138030
-0.0053793732 0.029219458 0.18700001 8414307
-0.0044759484 0.029063204 0.186 8545123
-0.0036012908 0.029063204 0.186 10057849
-0.0027119736 0.028906951 0.185 10255226
-0.0018420181 0.028906951 0.185 10583421
-0.00097206264 0.028906951 0.185 10845566
-0.0001021072 0.028906951 0.185 11042175
0.00076784822 0.028906951 0.185 11041662
0.0016289508 0.028750699 0.18400002 11436422
0.0024942039 0.028750699 0.18400002 11502215
0.0033594568 0.028750699 0.18400002 11568008
0.0042247097 0.028750699 0.18400002 11502213
0.0050899629 0.028750699 0.18400002 11502213
0.0059552165 0.028750699 0.18400002 11370627
0.0068204692 0.028750699 0.18400002 11304064
0.0076857223 0.028750699 0.18400002 11435136
0.0085509755 0.028750699 0.18400002 10974585
0.0094162282 0.028750699 0.18400002 10908279
0.010281481 0.028750699 0.18400002 10974072
0.011207313 0.028906951 0.185 10842486
0.012077268 0.028906951 0.185 11369084
0.012947224 0.028906951 0.185 12224393
0.01381718 0.028906951 0.185 11698049
0.014687136 0.028906951 0.185 10908533
0.01555709 0.028906951 0.185 10776693
0.016427046 0.028906951 0.185 11632515
0.017297002 0.028906951 0.185 11830148
0.018166957 0.028906951 0.185 11895941
0.019036911 0.028906951 0.185 11237759
0.019906867 0.028906951 0.185 10382964
0.020776823 0.028906951 0.185 10448757
0.021646779 0.028906951 0.185 10448755
0.022516733 0.028906951 0.185 10515318
0.023386689 0.028906951 0.185 10712697
0.024256645 0.028906951 0.185 10449525
0.025126601 0.028906951 0.185 9725802
0.025996557 0.028906951 0.185 9660009
0.026866512 0.028906951 0.185 9660009
0.027736466 0.028906951 0.185 9528938
0.028451795 0.028750699 0.18400002 9200743
0.031709209 0.027813174 0.178 7232614
-0.0073289522 0.0309036 0.192 6309964
-0.0063256719 0.030420732 0.18900001 8875373
-0.0054081399 0.030259777 0.18800001 9797245
-0.0045000128 0.03009882 0.18700001 10388610
-0.0036206525 0.03009882 0.18700001 10189435
-0.0027266329 0.029937863 0.186 10584191
-0.001851975 0.029937863 0.186 10913156
-0.00097731699 0.029937863 0.186 10846593
-0.00010265913 0.029937863 0.186 10977665
0.00077199872 0.029937863 0.186 11240324
0.0016378037 0.029776907 0.185 11635082
0.0025077593 0.029776907 0.185 11371910
0.0033777144 0.029776907 0.185 11240324
0.0042476701 0.029776907 0.185 10845566
0.0051176255 0.029776907 0.185 10845568
0.0059875813 0.029776907 0.185 10384247
0.0068575363 0.029776907 0.185 10120562
0.0077274921 0.029776907 0.185 10448755
0.0085974475 0.029776907 0.185 10843513
0.0094674025 0.029776907 0.185 11040892
0.010337358 0.029776907 0.185 10711413
0.011267894 0.029937863 0.186 10711413
0.012142551 0.029937863 0.186 11040380
0.013017209 0.029937863 0.186 11171964
0.013891867 0.029937863 0.186 11500670
0.014845916 0.03009882 0.18700001 11369084
0.015725276 0.03009882 0.18700001 11698049
0.016604636 0.03009882 0.18700001 11500929
0.017483996 0.03009882 0.18700001 10579827
0.018363358 0.03009882 0.18700001 10448755
0.019242717 0.03009882 0.18700001 10251376
0.020122077 0.03009882 0.18700001 10054769
0.021001438 0.03009882 0.18700001 10317941
0.0218808 0.03009882 0.18700001 10712699
0.022760158 0.03009882 0.18700001 10515320
0.023639519 0.03009882 0.18700001 10186353
0.024518881 0.03009882 0.18700001 9660009
0.025398241 0.03009882 0.18700001 9396837
0.026277602 0.03009882 0.18700001 9265764
0.027156962 0.03009882 0.18700001 9200741
0.028036321 0.03009882 0.18700001 9134950
0.028761052 0.029937863 0.186 9267049
-0.0054081399 0.031143837 0.18800001 6836820
-0.0045000128 0.030978177 0.18700001 7888478
-0.0036206525 0.030978177 0.18700001 10191231
-0.0027412924 0.030978177 0.18700001 10388095
-0.0018619319 0.030978177 0.18700001 10453118
-0.00098257139 0.030978177 0.18700001 10453118
-0.00010265913 0.030812519 0.186 10847365
0.00077199872 0.030812519 0.186 10715779
0.0016466568 0.030812519 0.186 10649216
0.0025213147 0.030812519 0.186 10517116
0.0033959725 0.030812519 0.186 10648702
0.0042706304 0.030812519 0.186 10450810
0.0051452885 0.030812519 0.186 9134950
0.0060199467 0.030812519 0.186 9398122
0.0068946043 0.030812519 0.186 9661294
0.0077692624 0.030812519 0.186 10252148
0.0086439196 0.030812519 0.186 10186353
0.0095185777 0.030812519 0.186 10515318
0.010393236 0.030812519 0.186 10580341
0.011328474 0.030978177 0.18700001 10382962
0.012273116 0.031143837 0.18800001 10317169
0.01315718 0.031143837 0.18800001 10382962
0.014041243 0.031143837 0.18800001 10053483
0.014925306 0.031143837 0.18800001 10119276
0.015809368 0.031143837 0.18800001 10448241
0.016693432 0.031143837 0.18800001 10579827
0.017577494 0.031143837 0.18800001 10580341
0.018461557 0.031143837 0.18800001 10317169
0.019345619 0.031143837 0.18800001 10646904
0.020229682 0.031143837 0.18800001 10581111
0.021113746 0.031143837 0.18800001 10515318
0.021997809 0.031143837 0.18800001 10450040
0.022881871 0.031143837 0.18800001 10450040
0.023765935 0.031143837 0.18800001 10186870
0.024649998 0.031143837 0.18800001 8805215
0.02553406 0.031143837 0.18800001 9199971
0.026418123 0.031143837 0.18800001 9003362
0.027302187 0.031143837 0.18800001 8281438
0.028186247 0.031143837 0.18800001 8281953
0.02907031 0.031143837 0.18800001 8019810
-0.0036206525 0.031857539 0.18700001 6770767
-0.0027412924 0.031857539 0.18700001 6967376
-0.0018619319 0.031857539 0.18700001 7954271
-0.00098257139 0.031857539 0.18700001 10453892
-0.00010265913 0.031687178 0.186 10388099
0.00077199872 0.031687178 0.186 9993341
0.0016466568 0.031687178 0.186 10519685
0.0025213147 0.031687178 0.186 10386816
0.0033959725 0.031687178 0.186 10518400
0.0042706304 0.031687178 0.186 10518400
0.0051452885 0.031687178 0.186 10649216
0.0095185777 0.031687178 0.186 9660524
0.010393236 0.031687178 0.186 9726317
0.011328474 0.031857539 0.18700001 9923696
0.012338399 0.032198261 0.18900001 9463145
0.013227165 0.032198261 0.18900001 9331044
0.014115931 0.032198261 0.18900001 9528423
0.015004696 0.032198261 0.18900001 9660009
0.015893461 0.032198261 0.18900001 9791595
0.016782226 0.032198261 0.18900001 9988974
0.017670993 0.032198261 0.18900001 10186353
0.018559758 0.032198261 0.18900001 10121073
0.019448522 0.032198261 0.18900001 9726315
0.020337287 0.032198261 0.18900001 9398120
0.021226054 0.032198261 0.18900001 9661292
0.022114819 0.032198261 0.18900001 9135463
0.023003584 0.032198261 0.18900001 8477535
0.023892349 0.032198261 0.18900001 8477535
0.024781115 0.032198261 0.18900001 8543074
0.02566988 0.032198261 0.18900001 8412772
0.026558645 0.032198261 0.18900001 7425877
0.027447412 0.032198261 0.18900001 7032402
0.028336175 0.032198261 0.18900001 6376531
0.02907031 0.0320279 0.18800001 4667968
-0.0018619319 0.032736897 0.18700001 7166298
-0.00010265913 0.032561835 0.186 7428957
0.00077199872 0.032561835 0.186 8218213
0.0016466568 0.032561835 0.186 7823455
0.0025213147 0.032561835 0.186 9795962
0.0033959725 0.032561835 0.186 10059132
0.0042706304 0.032561835 0.186 9532018
0.0051452885 0.032561835 0.186 9334126
0.011389053 0.032911964 0.18800001 8477535
0.012403682 0.033262093 0.19000001 9267049
0.01329715 0.033262093 0.19000001 9069155
