# .PCD v0.7 - Point Cloud Data file format
VERSION 0.7
FIELDS x y z rgb
SIZE 4 4 4 4
TYPE F F F U
COUNT 1 1 1 1
WIDTH 1047
HEIGHT 1
VIEWPOINT 0 0 0 1 0 0 0
POINTS 1047
DATA ascii
0.0041328683 -0.007424931 0.18000001 14397622
0.0049793115 -0.007424931 0.18000001 11503498
0.0058257547 -0.007424931 0.18000001 11567236
0.0066721975 -0.007424931 0.18000001 14524581
0.0075186412 -0.007424931 0.18000001 13340307
0.0083650844 -0.007424931 0.18000001 14721958
0.0092115272 -0.007424931 0.18000001 15577531
0.01005797 -0.007424931 0.18000001 14460083
0.010904414 -0.007424931 0.18000001 13079713
0.011750856 -0.007424931 0.18000001 16770030
0.012597299 -0.007424931 0.18000001 16770025
0.013443743 -0.007424931 0.18000001 16239313
0.014290187 -0.007424931 0.18000001 11635610
0.015136628 -0.007424931 0.18000001 11570848
0.015983073 -0.007424931 0.18000001 13869743
0.016829515 -0.007424931 0.18000001 15839928
0.017774159 -0.0074661807 0.18100001 16234166
0.018625304 -0.0074661807 0.18100001 14657712
0.019476449 -0.0074661807 0.18100001 14525874
0.020327596 -0.0074661807 0.18100001 16769002
0.021178741 -0.0074661807 0.18100001 16767976
0.022029886 -0.0074661807 0.18100001 14791875
0.022881033 -0.0074661807 0.18100001 11571100
0.023732178 -0.0074661807 0.18100001 11043722
0.024583325 -0.0074661807 0.18100001 13541026
0.02543447 -0.0074661807 0.18100001 15317166
0.026285617 -0.0074661807 0.18100001 16697016
0.02713676 -0.0074661807 0.18100001 16767440
0.027987905 -0.0074661807 0.18100001 16770279
0.028839052 -0.0074661807 0.18100001 16774390
0.029690197 -0.0074661807 0.18100001 16773366
0.030541344 -0.0074661807 0.18100001 16770801
0.031392489 -0.0074661807 0.18100001 16766183
0.032243636 -0.0074661807 0.18100001 13341087
0.033094779 -0.0074661807 0.18100001 16771050
0.033945926 -0.0074661807 0.18100001 16765911
0.034797072 -0.0074661807 0.18100001 16308445
0.035648216 -0.0074661807 0.18100001 16775928
0.036499362 -0.0074661807 0.18100001 16777211
0.037350509 -0.0074661807 0.18100001 16775416
0.038201656 -0.0074661807 0.18100001 14923199
0.038837038 -0.007424931 0.18000001 15708090
0.03968348 -0.007424931 0.18000001 15444146
0.040529922 -0.007424931 0.18000001 13800091
0.041376367 -0.007424931 0.18000001 13536919
0.042222809 -0.007424931 0.18000001 13340821
0.043069255 -0.007424931 0.18000001 12026496
0.043915696 -0.007424931 0.18000001 8738641
0.044762142 -0.007424931 0.18000001 5977903
-0.016091868 -0.0065419408 0.17900001 11565693
-0.015250128 -0.0065419408 0.17900001 12419457
-0.014408386 -0.0065419408 0.17900001 12220280
-0.013566647 -0.0065419408 0.17900001 12152688
-0.012724906 -0.0065419408 0.17900001 12676206
-0.011883165 -0.0065419408 0.17900001 11754334
-0.011041424 -0.0065419408 0.17900001 11491930
-0.010199684 -0.0065419408 0.17900001 12084324
-0.0093579432 -0.0065419408 0.17900001 11559781
-0.0085162027 -0.0065419408 0.17900001 11493990
-0.0076744617 -0.0065419408 0.17900001 12021363
-0.0068327212 -0.0065419408 0.17900001 11497842
-0.0059909802 -0.0065419408 0.17900001 16763598
-0.0051492397 -0.0065419408 0.17900001 15971512
-0.0043074992 -0.0065419408 0.17900001 11958141
-0.0034657582 -0.0065419408 0.17900001 9459552
-0.0026240177 -0.0065419408 0.17900001 10841203
-0.001782277 -0.0065419408 0.17900001 11366002
-0.00094053627 -0.0065419408 0.17900001 11759731
-9.8795615e-05 -0.0065419408 0.17900001 11299180
0.00074294501 -0.0065419408 0.17900001 12679041
0.0015935388 -0.0065784878 0.18000001 12219008
0.002439982 -0.0065784878 0.18000001 11892096
0.003286425 -0.0065784878 0.18000001 16369100
0.0041328683 -0.0065784878 0.18000001 16109008
0.0049793115 -0.0065784878 0.18000001 13806768
0.0058257547 -0.0065784878 0.18000001 13013655
0.0066721975 -0.0065784878 0.18000001 14853544
0.0075186412 -0.0065784878 0.18000001 14590626
0.0083650844 -0.0065784878 0.18000001 12814475
0.0092115272 -0.0065784878 0.18000001 12091524
0.01005797 -0.0065784878 0.18000001 13736610
0.010904414 -0.0065784878 0.18000001 11764105
0.011750856 -0.0065784878 0.18000001 16767198
0.012597299 -0.0065784878 0.18000001 16566992
0.013443743 -0.0065784878 0.18000001 10054771
0.014290187 -0.0065784878 0.18000001 11964059
0.015136628 -0.0065784878 0.18000001 13936566
0.015983073 -0.0065784878 0.18000001 12026510
0.016829515 -0.0065784878 0.18000001 12222086
0.017774159 -0.0066150352 0.18100001 14986416
0.018625304 -0.0066150352 0.18100001 16171719
0.019476449 -0.0066150352 0.18100001 11632519
0.020327596 -0.0066150352 0.18100001 16766948
0.021178741 -0.0066150352 0.18100001 16767718
0.022029886 -0.0066150352 0.18100001 14136514
0.022881033 -0.0066150352 0.18100001 10651281
0.023732178 -0.0066150352 0.18100001 14266814
0.024583325 -0.0066150352 0.18100001 16633819
0.02543447 -0.0066150352 0.18100001 14394540
0.026285617 -0.0066150352 0.18100001 13341589
0.02713676 -0.0066150352 0.18100001 11630973
0.027987905 -0.0066150352 0.18100001 16769512
0.028839052 -0.0066150352 0.18100001 16572649
0.029690197 -0.0066150352 0.18100001 15978718
0.030541344 -0.0066150352 0.18100001 16767466
0.031392489 -0.0066150352 0.18100001 11696777
0.032243636 -0.0066150352 0.18100001 12945299
0.033094779 -0.0066150352 0.18100001 12944782
0.033945926 -0.0066150352 0.18100001 10777210
0.034797072 -0.0066150352 0.18100001 16773375
0.035648216 -0.0066150352 0.18100001 16775162
0.036499362 -0.0066150352 0.18100001 16773361
0.037350509 -0.0066150352 0.18100001 16773624
0.038201656 -0.0066150352 0.18100001 15313330
0.038837038 -0.0065784878 0.18000001 13205637
0.03968348 -0.0065784878 0.18000001 14128025
0.040529922 -0.0065784878 0.18000001 13601681
0.041376367 -0.0065784878 0.18000001 14062486
0.042222809 -0.0065784878 0.18000001 11957623
0.043069255 -0.0065784878 0.18000001 12748422
0.043915696 -0.0065784878 0.18000001 12617348
0.044762142 -0.0065784878 0.18000001 8871512
-0.016091868 -0.0057001999 0.17900001 11434875
-0.015250128 -0.0057001999 0.17900001 12023162
-0.014408386 -0.0057001999 0.17900001 11758959
-0.013566647 -0.0057001999 0.17900001 12413291
-0.012724906 -0.0057001999 0.17900001 11688539
-0.011883165 -0.0057001999 0.17900001 12478055
-0.011041424 -0.0057001999 0.17900001 12347239
-0.010199684 -0.0057001999 0.17900001 12084578
-0.0093579432 -0.0057001999 0.17900001 11494240
-0.0085162027 -0.0057001999 0.17900001 11560805
-0.0076744617 -0.0057001999 0.17900001 11495015
-0.0068327212 -0.0057001999 0.17900001 11166822
-0.0059909802 -0.0057001999 0.17900001 10180699
-0.0051492397 -0.0057001999 0.17900001 10772066
-0.0043074992 -0.0057001999 0.17900001 10246490
-0.0034657582 -0.0057001999 0.17900001 9589852
-0.0026240177 -0.0057001999 0.17900001 9721438
-0.001782277 -0.0057001999 0.17900001 10838888
-0.00094053627 -0.0057001999 0.17900001 10773347
-9.8795615e-05 -0.0057001999 0.17900001 11101797
0.00074294501 -0.0057001999 0.17900001 11495785
0.0015935388 -0.0057320446 0.18000001 11889777
0.002439982 -0.0057320446 0.18000001 12745602
0.003286425 -0.0057320446 0.18000001 14128540
0.0041328683 -0.0057320446 0.18000001 10909308
0.0049793115 -0.0057320446 0.18000001 13079963
0.0058257547 -0.0057320446 0.18000001 11169650
0.0066721975 -0.0057320446 0.18000001 11497588
0.0075186412 -0.0057320446 0.18000001 11497588
0.0083650844 -0.0057320446 0.18000001 11827066
0.0092115272 -0.0057320446 0.18000001 11235443
0.01005797 -0.0057320446 0.18000001 10379882
0.010904414 -0.0057320446 0.18000001 10642540
0.011750856 -0.0057320446 0.18000001 10906228
0.012597299 -0.0057320446 0.18000001 8867930
0.013443743 -0.0057320446 0.18000001 8738659
0.014290187 -0.0057320446 0.18000001 11042444
0.015136628 -0.0057320446 0.18000001 8738406
0.015983073 -0.0057320446 0.18000001 9000034
0.016829515 -0.0057320446 0.18000001 10182505
0.017774159 -0.0057638893 0.18100001 11957371
0.018625304 -0.0057638893 0.18100001 12945295
0.019476449 -0.0057638893 0.18100001 11762055
0.020327596 -0.0057638893 0.18100001 10579831
0.021178741 -0.0057638893 0.18100001 11041925
0.022029886 -0.0057638893 0.18100001 14203071
0.022881033 -0.0057638893 0.18100001 13675444
0.023732178 -0.0057638893 0.18100001 11039099
0.024583325 -0.0057638893 0.18100001 12747918
0.02543447 -0.0057638893 0.18100001 10445415
0.026285617 -0.0057638893 0.18100001 10379109
0.02713676 -0.0057638893 0.18100001 12025990
0.027987905 -0.0057638893 0.18100001 16772337
0.028839052 -0.0057638893 0.18100001 16769514
0.029690197 -0.0057638893 0.18100001 15579332
0.030541344 -0.0057638893 0.18100001 12879504
0.031392489 -0.0057638893 0.18100001 12483202
0.032243636 -0.0057638893 0.18100001 12088955
0.033094779 -0.0057638893 0.18100001 11892346
0.033945926 -0.0057638893 0.18100001 14788783
0.034797072 -0.0057638893 0.18100001 12552854
0.035648216 -0.0057638893 0.18100001 15843785
0.036499362 -0.0057638893 0.18100001 16767459
0.037350509 -0.0057638893 0.18100001 12290709
0.038201656 -0.0057638893 0.18100001 12484998
0.038837038 -0.0057320446 0.18000001 11957110
0.03968348 -0.0057320446 0.18000001 11495787
0.040529922 -0.0057320446 0.18000001 11693166
0.041376367 -0.0057320446 0.18000001 11693166
0.042222809 -0.0057320446 0.18000001 11167592
0.043069255 -0.0057320446 0.18000001 11103084
0.043915696 -0.0057320446 0.18000001 12156285
0.044762142 -0.0057320446 0.18000001 12027014
0.045608584 -0.0057320446 0.18000001 4137512
-0.016091868 -0.0048584593 0.17900001 11695994
-0.015250128 -0.0048584593 0.17900001 12023932
-0.014408386 -0.0048584593 0.17900001 12285305
-0.013566647 -0.0048584593 0.17900001 11822442
-0.012724906 -0.0048584593 0.17900001 12413037
-0.011883165 -0.0048584593 0.17900001 12676204
-0.011041424 -0.0048584593 0.17900001 13334134
-0.010199684 -0.0048584593 0.17900001 12807790
-0.0093579432 -0.0048584593 0.17900001 10835799
-0.0085162027 -0.0048584593 0.17900001 10508117
-0.0076744617 -0.0048584593 0.17900001 11298410
-0.0068327212 -0.0048584593 0.17900001 9654614
-0.0059909802 -0.0048584593 0.17900001 9260376
-0.0051492397 -0.0048584593 0.17900001 8734545
-0.0043074992 -0.0048584593 0.17900001 8536651
-0.0034657582 -0.0048584593 0.17900001 8142922
-0.0026240177 -0.0048584593 0.17900001 10510956
-0.001782277 -0.0048584593 0.17900001 9260626
-0.00094053627 -0.0048584593 0.17900001 9325386
-9.8795615e-05 -0.0048584593 0.17900001 9720398
0.00074294501 -0.0048584593 0.17900001 10574167
0.0015935388 -0.0048856018 0.18000001 10244948
0.002439982 -0.0048856018 0.18000001 9259593
0.003286425 -0.0048856018 0.18000001 9918040
0.0041328683 -0.0048856018 0.18000001 9920355
0.0049793115 -0.0048856018 0.18000001 11039349
0.0058257547 -0.0048856018 0.18000001 12023416
0.0066721975 -0.0048856018 0.18000001 11496557
0.0075186412 -0.0048856018 0.18000001 11431279
0.0083650844 -0.0048856018 0.18000001 11300463
0.0092115272 -0.0048856018 0.18000001 11037291
0.01005797 -0.0048856018 0.18000001 10642533
0.010904414 -0.0048856018 0.18000001 13800343
0.011750856 -0.0048856018 0.18000001 12486282
0.012597299 -0.0048856018 0.18000001 8539731
0.013443743 -0.0048856018 0.18000001 9134180
0.014290187 -0.0048856018 0.18000001 8475735
0.015136628 -0.0048856018 0.18000001 9000286
0.015983073 -0.0048856018 0.18000001 9196641
0.016829515 -0.0048856018 0.18000001 9063512
0.017774159 -0.0049127438 0.18100001 9128788
0.018625304 -0.0049127438 0.18100001 9984610
0.019476449 -0.0049127438 0.18100001 14460081
0.020327596 -0.0049127438 0.18100001 9330278
0.021178741 -0.0049127438 0.18100001 9398646
0.022029886 -0.0049127438 0.18100001 9333876
0.022881033 -0.0049127438 0.18100001 8344153
0.023732178 -0.0049127438 0.18100001 10313829
0.024583325 -0.0049127438 0.18100001 10247521
0.02543447 -0.0049127438 0.18100001 10641509
0.026285617 -0.0049127438 0.18100001 10443617
0.02713676 -0.0049127438 0.18100001 9458007
0.027987905 -0.0049127438 0.18100001 15248050
0.028839052 -0.0049127438 0.18100001 10510954
0.029690197 -0.0049127438 0.18100001 11958141
0.030541344 -0.0049127438 0.18100001 11759990
0.031392489 -0.0049127438 0.18100001 11298410
0.032243636 -0.0049127438 0.18100001 10772836
0.033094779 -0.0049127438 0.18100001 10181212
0.033945926 -0.0049127438 0.18100001 9656151
0.034797072 -0.0049127438 0.18100001 10051941
0.035648216 -0.0049127438 0.18100001 8538448
0.036499362 -0.0049127438 0.18100001 10248300
0.037350509 -0.0049127438 0.18100001 12351896
0.038201656 -0.0049127438 0.18100001 11824502
0.038837038 -0.0048856018 0.18000001 10639449
0.03968348 -0.0048856018 0.18000001 10178898
0.040529922 -0.0048856018 0.18000001 10508120
0.041376367 -0.0048856018 0.18000001 10047571
0.042222809 -0.0048856018 0.18000001 9587790
0.043069255 -0.0048856018 0.18000001 10838629
0.043915696 -0.0048856018 0.18000001 11761014
0.044762142 -0.0048856018 0.18000001 13143440
0.045608584 -0.0048856018 0.18000001 4596008
0.046455026 -0.0048856018 0.18000001 3091246
0.047301471 -0.0048856018 0.18000001 2566699
-0.016091868 -0.0040167188 0.17900001 12156547
-0.015250128 -0.0040167188 0.17900001 12417922
-0.014408386 -0.0040167188 0.17900001 12153465
-0.013566647 -0.0040167188 0.17900001 12810625
-0.012724906 -0.0040167188 0.17900001 12217715
-0.011883165 -0.0040167188 0.17900001 12940923
-0.011041424 -0.0040167188 0.17900001 11623521
-0.010199684 -0.0040167188 0.17900001 12413291
-0.0093579432 -0.0040167188 0.17900001 11953256
-0.0085162027 -0.0040167188 0.17900001 11034209
-0.0076744617 -0.0040167188 0.17900001 10575203
-0.0068327212 -0.0040167188 0.17900001 10576234
-0.0059909802 -0.0040167188 0.17900001 10249068
-0.0051492397 -0.0040167188 0.17900001 9789030
-0.0043074992 -0.0040167188 0.17900001 9327964
-0.0034657582 -0.0040167188 0.17900001 9458782
-0.0026240177 -0.0040167188 0.17900001 12353674
-0.001782277 -0.0040167188 0.17900001 10445929
-0.00094053627 -0.0040167188 0.17900001 10511208
-9.8795615e-05 -0.0040167188 0.17900001 9194833
0.00074294501 -0.0040167188 0.17900001 10114652
0.0015935388 -0.0040391586 0.18000001 14721445
0.002439982 -0.0040391586 0.18000001 15250871
0.003286425 -0.0040391586 0.18000001 13672612
0.0041328683 -0.0040391586 0.18000001 11896973
0.0049793115 -0.0040391586 0.18000001 11104888
0.0058257547 -0.0040391586 0.18000001 12091522
0.0066721975 -0.0040391586 0.18000001 12879754
0.0075186412 -0.0040391586 0.18000001 13142926
0.0083650844 -0.0040391586 0.18000001 12813961
0.0092115272 -0.0040391586 0.18000001 12616582
0.01005797 -0.0040391586 0.18000001 11103343
0.010904414 -0.0040391586 0.18000001 16435145
0.011750856 -0.0040391586 0.18000001 15185339
0.012597299 -0.0040391586 0.18000001 11041664
0.013443743 -0.0040391586 0.18000001 12029070
0.014290187 -0.0040391586 0.18000001 10777974
0.015136628 -0.0040391586 0.18000001 10908279
0.015983073 -0.0040391586 0.18000001 11433853
0.016829515 -0.0040391586 0.18000001 11300986
0.017774159 -0.0040615983 0.18100001 9722724
0.018625304 -0.0040615983 0.18100001 13737641
0.019476449 -0.0040615983 0.18100001 15383750
0.020327596 -0.0040615983 0.18100001 15450828
0.021178741 -0.0040615983 0.18100001 13743041
0.022029886 -0.0040615983 0.18100001 11307926
0.022881033 -0.0040615983 0.18100001 10842488
0.023732178 -0.0040615983 0.18100001 11563129
0.024583325 -0.0040615983 0.18100001 12681610
0.02543447 -0.0040615983 0.18100001 12680840
0.026285617 -0.0040615983 0.18100001 10180706
0.02713676 -0.0040615983 0.18100001 7747650
0.027987905 -0.0040615983 0.18100001 5842483
0.028839052 -0.0040615983 0.18100001 5975351
0.029690197 -0.0040615983 0.18100001 5645356
0.030541344 -0.0040615983 0.18100001 6236978
0.031392489 -0.0040615983 0.18100001 6695214
0.032243636 -0.0040615983 0.18100001 5576472
0.033094779 -0.0040615983 0.18100001 4853262
0.033945926 -0.0040615983 0.18100001 4590350
0.034797072 -0.0040615983 0.18100001 4261133
0.035648216 -0.0040615983 0.18100001 6036519
0.036499362 -0.0040615983 0.18100001 5310741
0.037350509 -0.0040615983 0.18100001 6626083
0.038201656 -0.0040615983 0.18100001 8403518
0.038837038 -0.0040391586 0.18000001 10376536
0.03968348 -0.0040391586 0.18000001 10771035
0.040529922 -0.0040391586 0.18000001 11298406
0.041376367 -0.0040391586 0.18000001 9983316
0.042222809 -0.0040391586 0.18000001 9522769
0.043069255 -0.0040391586 0.18000001 11233648
0.043915696 -0.0040391586 0.18000001 10971759
0.044762142 -0.0040391586 0.18000001 13538200
0.045608584 -0.0040391586 0.18000001 4924459
0.046455026 -0.0040391586 0.18000001 2564902
0.047301471 -0.0040391586 0.18000001 2106146
-0.01600197 -0.0031572406 0.178 13144725
-0.015250128 -0.0031749781 0.17900001 12484996
-0.014408386 -0.0031749781 0.17900001 12747655
-0.013566647 -0.0031749781 0.17900001 12548993
-0.012724906 -0.0031749781 0.17900001 12679293
-0.011883165 -0.0031749781 0.17900001 13205378
-0.011041424 -0.0031749781 0.17900001 13862538
-0.010199684 -0.0031749781 0.17900001 13664648
-0.0093579432 -0.0031749781 0.17900001 11757164
-0.0085162027 -0.0031749781 0.17900001 11955570
-0.0076744617 -0.0031749781 0.17900001 10839919
-0.0068327212 -0.0031749781 0.17900001 15447228
-0.0059909802 -0.0031749781 0.17900001 16434895
-0.0051492397 -0.0031749781 0.17900001 14987195
-0.0043074992 -0.0031749781 0.17900001 10578035
-0.0034657582 -0.0031749781 0.17900001 11432058
-0.0026240177 -0.0031749781 0.17900001 13078167
-0.001782277 -0.0031749781 0.17900001 12156293
-0.00094053627 -0.0031749781 0.17900001 12353158
-9.8795615e-05 -0.0031749781 0.17900001 12419205
0.00074294501 -0.0031749781 0.17900001 11563896
0.0015935388 -0.0031927153 0.18000001 16696264
0.002439982 -0.0031927153 0.18000001 15712197
0.003286425 -0.0031927153 0.18000001 14726333
0.0041328683 -0.0031927153 0.18000001 12753313
0.0049793115 -0.0031927153 0.18000001 12751250
0.0058257547 -0.0031927153 0.18000001 13341073
0.0066721975 -0.0031927153 0.18000001 12682116
0.0075186412 -0.0031927153 0.18000001 12812678
0.0083650844 -0.0031927153 0.18000001 13404815
0.0092115272 -0.0031927153 0.18000001 12484996
0.01005797 -0.0031927153 0.18000001 11762305
0.010904414 -0.0031927153 0.18000001 15382718
0.011750856 -0.0031927153 0.18000001 14857406
0.012597299 -0.0031927153 0.18000001 10713984
0.013443743 -0.0031927153 0.18000001 11437703
0.014290187 -0.0031927153 0.18000001 12487565
0.015136628 -0.0031927153 0.18000001 13078932
0.015983073 -0.0031927153 0.18000001 13144212
0.016829515 -0.0031927153 0.18000001 13144212
0.017774159 -0.0032104526 0.18100001 11433855
0.018625304 -0.0032104526 0.18100001 15646922
0.019476449 -0.0032104526 0.18100001 15055300
0.020327596 -0.0032104526 0.18100001 15187920
0.021178741 -0.0032104526 0.18100001 12887730
0.022029886 -0.0032104526 0.18100001 10713730
0.022881033 -0.0032104526 0.18100001 13011604
0.023732178 -0.0032104526 0.18100001 15576506
0.024583325 -0.0032104526 0.18100001 14786988
0.02543447 -0.0032104526 0.18100001 14392228
0.026285617 -0.0032104526 0.18100001 13800604
0.02713676 -0.0032104526 0.18100001 16764631
0.027987905 -0.0032104526 0.18100001 16174551
0.028839052 -0.0032104526 0.18100001 14923714
0.029690197 -0.0032104526 0.18100001 7355720
0.030541344 -0.0032104526 0.18100001 7484990
0.031392489 -0.0032104526 0.18100001 8734536
0.032243636 -0.0032104526 0.18100001 8208190
0.033094779 -0.0032104526 0.18100001 8405569
0.033945926 -0.0032104526 0.18100001 9260626
0.034797072 -0.0032104526 0.18100001 9853024
0.035648216 -0.0032104526 0.18100001 13865884
0.036499362 -0.0032104526 0.18100001 13075852
0.037350509 -0.0032104526 0.18100001 12153719
0.038201656 -0.0032104526 0.18100001 11890545
0.038837038 -0.0031927153 0.18000001 11890545
0.03968348 -0.0031927153 0.18000001 11298408
0.040529922 -0.0031927153 0.18000001 10707041
0.041376367 -0.0031927153 0.18000001 11759990
0.042222809 -0.0031927153 0.18000001 12878219
0.043069255 -0.0031927153 0.18000001 12747403
0.043915696 -0.0031927153 0.18000001 14590888
0.044762142 -0.0031927153 0.18000001 13735325
0.045608584 -0.0031927153 0.18000001 4332836
0.046455026 -0.0031927153 0.18000001 2497824
0.047301471 -0.0031927153 0.18000001 2171169
-0.01600197 -0.0023202023 0.178 13147040
-0.015250128 -0.0023332373 0.17900001 12683659
-0.014408386 -0.0023332373 0.17900001 13011340
-0.013566647 -0.0023332373 0.17900001 13207436
-0.012724906 -0.0023332373 0.17900001 14587290
-0.011883165 -0.0023332373 0.17900001 15508390
-0.011041424 -0.0023332373 0.17900001 16495028
-0.010199684 -0.0023332373 0.17900001 15835815
-0.0093579432 -0.0023332373 0.17900001 15113377
-0.0085162027 -0.0023332373 0.17900001 14455704
-0.0076744617 -0.0023332373 0.17900001 12944266
-0.0068327212 -0.0023332373 0.17900001 16767197
-0.0059909802 -0.0023332373 0.17900001 16435406
-0.0051492397 -0.0023332373 0.17900001 16500436
-0.0043074992 -0.0023332373 0.17900001 16235979
-0.0034657582 -0.0023332373 0.17900001 11959686
-0.0026240177 -0.0023332373 0.17900001 13605022
-0.001782277 -0.0023332373 0.17900001 13669272
-0.00094053627 -0.0023332373 0.17900001 13866138
-9.8795615e-05 -0.0023332373 0.17900001 13735065
0.00074294501 -0.0023332373 0.17900001 13340821
0.0015935388 -0.0023462721 0.18000001 15973309
0.002439982 -0.0023462721 0.18000001 15843521
0.003286425 -0.0023462721 0.18000001 15977424
0.0041328683 -0.0023462721 0.18000001 13280422
0.0049793115 -0.0023462721 0.18000001 13146008
0.0058257547 -0.0023462721 0.18000001 13933210
0.0066721975 -0.0023462721 0.18000001 13866903
0.0075186412 -0.0023462721 0.18000001 13537425
0.0083650844 -0.0023462721 0.18000001 13537425
0.0092115272 -0.0023462721 0.18000001 13471378
0.01005797 -0.0023462721 0.18000001 16300477
0.010904414 -0.0023462721 0.18000001 16764368
0.011750856 -0.0023462721 0.18000001 16108238
0.012597299 -0.0023462721 0.18000001 11306894
0.013443743 -0.0023462721 0.18000001 11436935
0.014290187 -0.0023462721 0.18000001 12552075
0.015136628 -0.0023462721 0.18000001 13735063
0.015983073 -0.0023462721 0.18000001 13209233
0.016829515 -0.0023462721 0.18000001 12683661
0.017774159 -0.0023593071 0.18100001 15118263
0.018625304 -0.0023593071 0.18100001 15449797
0.019476449 -0.0023593071 0.18100001 15846099
0.020327596 -0.0023593071 0.18100001 15519963
0.021178741 -0.0023593071 0.18100001 11242133
0.022029886 -0.0023593071 0.18100001 10382712
0.022881033 -0.0023593071 0.18100001 13011606
0.023732178 -0.0023593071 0.18100001 13669018
0.024583325 -0.0023593071 0.18100001 15049642
0.02543447 -0.0023593071 0.18100001 16763595
0.026285617 -0.0023593071 0.18100001 16768214
0.02713676 -0.0023593071 0.18100001 16771825
0.027987905 -0.0023593071 0.18100001 16569056
0.028839052 -0.0023593071 0.18100001 16766698
0.029690197 -0.0023593071 0.18100001 11236747
0.030541344 -0.0023593071 0.18100001 10512238
0.031392489 -0.0023593071 0.18100001 10839658
0.032243636 -0.0023593071 0.18100001 10115935
0.033094779 -0.0023593071 0.18100001 9919069
0.033945926 -0.0023593071 0.18100001 9064276
0.034797072 -0.0023593071 0.18100001 13801888
0.035648216 -0.0023593071 0.18100001 14591406
0.036499362 -0.0023593071 0.18100001 15972291
0.037350509 -0.0023593071 0.18100001 11496566
0.038201656 -0.0023593071 0.18100001 11759477
0.038837038 -0.0023462721 0.18000001 12483454
0.03968348 -0.0023462721 0.18000001 12351098
0.040529922 -0.0023462721 0.18000001 12549247
0.041376367 -0.0023462721 0.18000001 12746374
0.042222809 -0.0023462721 0.18000001 14589091
0.043069255 -0.0023462721 0.18000001 14983849
0.043915696 -0.0023462721 0.18000001 14524581
0.044762142 -0.0023462721 0.18000001 12158861
0.045608584 -0.0023462721 0.18000001 3085856
0.046455026 -0.0023462721 0.18000001 2104353
0.047301471 -0.0023462721 0.18000001 1973794
-0.01600197 -0.0014831641 0.178 7688267
-0.015250128 -0.0014914966 0.17900001 12750989
-0.014408386 -0.0014914966 0.17900001 13012108
-0.013566647 -0.0014914966 0.17900001 13208460
-0.012724906 -0.0014914966 0.17900001 14192532
-0.011883165 -0.0014914966 0.17900001 14916253
-0.011041424 -0.0014914966 0.17900001 14784410
-0.010199684 -0.0014914966 0.17900001 14192273
-0.0093579432 -0.0014914966 0.17900001 14587290
-0.0085162027 -0.0014914966 0.17900001 14719392
-0.0076744617 -0.0014914966 0.17900001 13930394
-0.0068327212 -0.0014914966 0.17900001 12484233
-0.0060244496 -0.001499829 0.18000001 16764373
-0.0051780064 -0.001499829 0.18000001 16765143
-0.0043315631 -0.001499829 0.18000001 16763859
-0.0034851201 -0.001499829 0.18000001 12355727
-0.0026386771 -0.001499829 0.18000001 13737632
-0.0017922339 -0.001499829 0.18000001 14195614
-0.00094579067 -0.001499829 0.18000001 14261148
-9.9347548e-05 -0.001499829 0.18000001 13997206
0.00074709556 -0.001499829 0.18000001 13471378
0.0015935388 -0.001499829 0.18000001 16764365
0.002439982 -0.001499829 0.18000001 16766417
0.003286425 -0.001499829 0.18000001 16768736
0.0041328683 -0.001499829 0.18000001 11570320
0.0049793115 -0.001499829 0.18000001 12685717
0.0058257547 -0.001499829 0.18000001 14064282
0.0066721975 -0.001499829 0.18000001 13669524
0.0075186412 -0.001499829 0.18000001 13735063
0.0083650844 -0.001499829 0.18000001 13866649
0.0092115272 -0.001499829 0.18000001 13734804
0.01005797 -0.001499829 0.18000001 13011081
0.010904414 -0.001499829 0.18000001 12682375
0.011750856 -0.001499829 0.18000001 12685717
0.012597299 -0.001499829 0.18000001 10715011
0.013443743 -0.001499829 0.18000001 12160143
0.014290187 -0.001499829 0.18000001 13473175
0.015136628 -0.001499829 0.18000001 13735063
0.015983073 -0.001499829 0.18000001 12945034
0.016923014 -0.0015081614 0.18100001 12156031
0.017774159 -0.0015081614 0.18100001 12749200
0.018625304 -0.0015081614 0.18100001 12025992
0.019476449 -0.0015081614 0.18100001 13673394
0.020327596 -0.0015081614 0.18100001 12821165
0.021178741 -0.0015081614 0.18100001 10122369
0.022029886 -0.0015081614 0.18100001 12222860
0.022881033 -0.0015081614 0.18100001 14721960
0.023732178 -0.0015081614 0.18100001 15247789
0.024583325 -0.0015081614 0.18100001 15377322
0.02543447 -0.0015081614 0.18100001 14194072
0.026285617 -0.0015081614 0.18100001 15710652
0.02713676 -0.0015081614 0.18100001 16504541
0.027987905 -0.0015081614 0.18100001 15913436
0.028839052 -0.0015081614 0.18100001 16241120
0.029690197 -0.0015081614 0.18100001 14263738
0.030541344 -0.0015081614 0.18100001 13538718
0.031392489 -0.0015081614 0.18100001 13735577
0.032243636 -0.0015081614 0.18100001 12879754
0.033094779 -0.0015081614 0.18100001 11827580
0.033945926 -0.0015081614 0.18100001 15447226
0.034797072 -0.0015081614 0.18100001 14987447
0.035648216 -0.0015081614 0.18100001 16106443
0.036499362 -0.0015081614 0.18100001 16770029
0.037350509 -0.0015081614 0.18100001 16769262
0.038201656 -0.0015081614 0.18100001 12878473
0.038837038 -0.001499829 0.18000001 13601681
0.03968348 -0.001499829 0.18000001 14522783
0.040529922 -0.001499829 0.18000001 14325404
0.041376367 -0.001499829 0.18000001 14062999
0.042222809 -0.001499829 0.18000001 14260378
0.043069255 -0.001499829 0.18000001 14195355
0.043915696 -0.001499829 0.18000001 14198183
0.044762142 -0.001499829 0.18000001 7686734
0.045608584 -0.001499829 0.18000001 3676959
0.046455026 -0.001499829 0.18000001 2892322
0.047301471 -0.001499829 0.18000001 1908771
-0.01600197 -0.00064612593 0.178 7230546
-0.015250128 -0.00064975582 0.17900001 11437955
-0.014408386 -0.00064975582 0.17900001 10842992
-0.013566647 -0.00064975582 0.17900001 11893111
-0.012795995 -0.00065338577 0.18000001 12878210
-0.011949551 -0.00065338577 0.18000001 14258323
-0.011103109 -0.00065338577 0.18000001 15047841
-0.010256666 -0.00065338577 0.18000001 13666188
-0.0094102221 -0.00065338577 0.18000001 14455704
-0.0085637793 -0.00065338577 0.18000001 15114404
-0.0077173361 -0.00065338577 0.18000001 14719392
-0.0068708933 -0.00065338577 0.18000001 14391197
-0.0060244496 -0.00065338577 0.18000001 13667476
-0.0051780064 -0.00065338577 0.18000001 16760260
-0.0043315631 -0.00065338577 0.18000001 13800345
-0.0034851201 -0.00065338577 0.18000001 13605276
-0.0026386771 -0.00065338577 0.18000001 13277081
-0.0017922339 -0.00065338577 0.18000001 14525347
-0.00094579067 -0.00065338577 0.18000001 15115172
-9.9347548e-05 -0.00065338577 0.18000001 13601935
0.00074709556 -0.00065338577 0.18000001 13865620
0.0015935388 -0.00065338577 0.18000001 13471630
0.002439982 -0.00065338577 0.18000001 13078671
0.003286425 -0.00065338577 0.18000001 10516601
0.0041328683 -0.00065338577 0.18000001 10845568
0.0049793115 -0.00065338577 0.18000001 11829381
0.0058257547 -0.00065338577 0.18000001 12353924
0.0066721975 -0.00065338577 0.18000001 12813961
0.0075186412 -0.00065338577 0.18000001 12418692
0.0083650844 -0.00065338577 0.18000001 13536403
0.0092115272 -0.00065338577 0.18000001 13470862
0.01005797 -0.00065338577 0.18000001 12813702
0.010904414 -0.00065338577 0.18000001 12157315
0.011750856 -0.00065338577 0.18000001 10910593
0.012597299 -0.00065338577 0.18000001 10845568
0.013443743 -0.00065338577 0.18000001 11698047
0.014290187 -0.00065338577 0.18000001 12024959
0.015136628 -0.00065338577 0.18000001 12221311
0.015983073 -0.00065338577 0.18000001 12023932
0.016923014 -0.00065701571 0.18100001 11630201
0.017774159 -0.00065701571 0.18100001 12157830
0.018625304 -0.00065701571 0.18100001 12026760
0.019476449 -0.00065701571 0.18100001 11306121
0.020327596 -0.00065701571 0.18100001 9202290
0.021178741 -0.00065701571 0.18100001 12028561
0.022029886 -0.00065701571 0.18100001 12157317
0.022881033 -0.00065701571 0.18100001 12484483
0.023732178 -0.00065701571 0.18100001 13075850
0.024583325 -0.00065701571 0.18100001 14193048
0.02543447 -0.00065701571 0.18100001 14258841
0.026285617 -0.00065701571 0.18100001 14129310
0.02713676 -0.00065701571 0.18100001 16772591
0.027987905 -0.00065701571 0.18100001 16774645
0.028839052 -0.00065701571 0.18100001 16774649
0.029690197 -0.00065701571 0.18100001 16770036
0.030541344 -0.00065701571 0.18100001 13800870
0.031392489 -0.00065701571 0.18100001 13273747
0.032243636 -0.00065701571 0.18100001 13471891
0.033094779 -0.00065701571 0.18100001 13603477
0.033945926 -0.00065701571 0.18100001 13143958
0.034797072 -0.00065701571 0.18100001 16697295
0.035648216 -0.00065701571 0.18100001 16105930
0.036499362 -0.00065701571 0.18100001 16770545
0.037350509 -0.00065701571 0.18100001 16629194
0.038201656 -0.00065701571 0.18100001 14061980
0.038837038 -0.00065338577 0.18000001 14193818
0.03968348 -0.00065338577 0.18000001 14456990
0.040529922 -0.00065338577 0.18000001 14325917
0.041376367 -0.00065338577 0.18000001 14261148
0.042222809 -0.00065338577 0.18000001 15445935
0.043069255 -0.00065338577 0.18000001 14527661
0.043915696 -0.00065338577 0.18000001 11966879
0.044762142 -0.00065338577 0.18000001 10523796
0.045608584 -0.00065338577 0.18000001 10720655
0.046455026 -0.00065338577 0.18000001 8548971
0.047301471 -0.00065338577 0.18000001 6643806
-0.01600197 0.00019091229 0.178 5264984
-0.015250128 0.00019198484 0.17900001 5587015
-0.014408386 0.00019198484 0.17900001 10649214
-0.013566647 0.00019198484 0.17900001 11040884
-0.012867084 0.00019412993 0.18100001 11631225
-0.012015938 0.00019412993 0.18100001 12616836
-0.011164793 0.00019412993 0.18100001 12550530
-0.010256666 0.00019305739 0.18000001 12483967
-0.0094625009 0.00019412993 0.18100001 12220282
-0.0086113559 0.00019412993 0.18100001 12483454
-0.00776021 0.00019412993 0.18100001 13272200
-0.0069090649 0.00019412993 0.18100001 13535372
-0.006057919 0.00019412993 0.18100001 13470095
-0.0052067731 0.00019412993 0.18100001 13535888
-0.0043556276 0.00019412993 0.18100001 13669270
-0.0035044819 0.00019412993 0.18100001 13013655
-0.0026533364 0.00019412993 0.18100001 11763842
-0.0018021908 0.00019412993 0.18100001 13210257
-0.00095104508 0.00019412993 0.18100001 12878725
-9.989948e-05 0.00019412993 0.18100001 12944003
0.00075124612 0.00019412993 0.18100001 12878723
0.0016023918 0.00019412993 0.18100001 12945286
0.0024535374 0.00019412993 0.18100001 12748682
0.0033046829 0.00019412993 0.18100001 9987944
0.0041558286 0.00019412993 0.18100001 10711413
0.0050069741 0.00019412993 0.18100001 11697025
0.00585812 0.00019412993 0.18100001 12156293
0.0067092655 0.00019412993 0.18100001 12682123
0.0075604115 0.00019412993 0.18100001 12089473
0.0084115565 0.00019412993 0.18100001 12681864
0.0092627024 0.00019412993 0.18100001 12813448
0.010113848 0.00019412993 0.18100001 12681862
0.010964993 0.00019412993 0.18100001 11894404
0.011816138 0.00019412993 0.18100001 9660526
0.012667284 0.00019412993 0.18100001 10581626
0.01351843 0.00019412993 0.18100001 11433853
0.014369576 0.00019412993 0.18100001 11892861
0.015220721 0.00019412993 0.18100001 11827066
0.016071867 0.00019412993 0.18100001 11761787
0.016923014 0.00019412993 0.18100001 11499385
0.017774159 0.00019412993 0.18100001 11368314
0.018625304 0.00019412993 0.18100001 11040378
0.019476449 0.00019412993 0.18100001 10582146
0.020327596 0.00019412993 0.18100001 9792112
0.021178741 0.00019412993 0.18100001 11501445
0.022029886 0.00019412993 0.18100001 11960967
0.022881033 0.00019412993 0.18100001 12552588
0.023732178 0.00019412993 0.18100001 12682889
0.024583325 0.00019412993 0.18100001 13931929
0.02543447 0.00019412993 0.18100001 14128538
0.026285617 0.00019412993 0.18100001 14260894
0.02713676 0.00019412993 0.18100001 13538200
0.027987905 0.00019412993 0.18100001 12881040
0.028839052 0.00019412993 0.18100001 12222856
0.029690197 0.00019412993 0.18100001 13011606
0.030541344 0.00019412993 0.18100001 13471905
0.031392489 0.00019412993 0.18100001 12748180
0.032243636 0.00019412993 0.18100001 13735325
0.033094779 0.00019412993 0.18100001 14392482
0.033945926 0.00019412993 0.18100001 11826555
0.034797072 0.00019412993 0.18100001 13208208
0.035648216 0.00019412993 0.18100001 16629703
0.036499362 0.00019412993 0.18100001 16299457
0.037350509 0.00019412993 0.18100001 13140880
0.038201656 0.00019412993 0.18100001 14391199
0.038837038 0.00019305739 0.18000001 14194072
0.03968348 0.00019305739 0.18000001 13602448
0.040529922 0.00019305739 0.18000001 14392734
0.041376367 0.00019305739 0.18000001 14526117
0.042222809 0.00019305739 0.18000001 12357524
0.043069255 0.00019305739 0.18000001 4993081
-0.014408386 0.0010337256 0.17900001 3480865
-0.013566647 0.0010337256 0.17900001 9267047
-0.013009262 0.0010568256 0.18300001 10646386
-0.012148711 0.0010568256 0.18300001 11763840
-0.011164793 0.0010452756 0.18100001 11630971
-0.010313648 0.0010452756 0.18100001 12091006
-0.0094625009 0.0010452756 0.18100001 12485250
-0.0086589325 0.0010510506 0.18200001 12550530
-0.0078030843 0.0010510506 0.18200001 12945034
-0.0069472366 0.0010510506 0.18200001 12418690
-0.0060913879 0.0010510506 0.18200001 13207436
-0.0052355397 0.0010510506 0.18200001 13076620
-0.0043796916 0.0010510506 0.18200001 13143442
-0.0035238436 0.0010510506 0.18200001 12356240
-0.0026679956 0.0010510506 0.18200001 11370629
-0.0018121476 0.0010510506 0.18200001 11829381
-0.00095629948 0.0010510506 0.18200001 11893373
-0.00010045141 0.0010510506 0.18200001 12352897
0.00075539667 0.0010510506 0.18200001 12747655
0.0016112449 0.0010510506 0.18200001 12879241
0.0024670931 0.0010510506 0.18200001 12879756
0.003322941 0.0010510506 0.18200001 12223110
0.004178789 0.0010510506 0.18200001 11696766
0.0050346372 0.0010510506 0.18200001 12091524
0.0058904854 0.0010510506 0.18200001 12550278
0.0067463336 0.0010510506 0.18200001 12418692
0.0076021818 0.0010510506 0.18200001 12484998
0.0084580295 0.0010510506 0.18200001 12287619
0.0093138777 0.0010510506 0.18200001 12353412
0.010169726 0.0010510506 0.18200001 12353412
0.011025574 0.0010510506 0.18200001 12420235
0.011881421 0.0010510506 0.18200001 10974074
0.01273727 0.0010510506 0.18200001 10973302
0.013593119 0.0010510506 0.18200001 11433340
0.014448967 0.0010510506 0.18200001 12222340
0.015304814 0.0010510506 0.18200001 12024961
0.016160663 0.0010510506 0.18200001 12025731
0.017016511 0.0010510506 0.18200001 12092037
0.01787236 0.0010510506 0.18200001 11829381
0.018728206 0.0010510506 0.18200001 11434625
0.019584054 0.0010510506 0.18200001 9922415
0.020439902 0.0010510506 0.18200001 11303552
0.021295752 0.0010510506 0.18200001 11500929
0.022151599 0.0010510506 0.18200001 11500929
0.023007447 0.0010510506 0.18200001 10579827
0.023863295 0.0010510506 0.18200001 9988976
0.024719143 0.0010510506 0.18200001 12421772
0.025574993 0.0010510506 0.18200001 12881038
0.026430842 0.0010510506 0.18200001 13998749
0.027286686 0.0010510506 0.18200001 13406098
0.028142536 0.0010510506 0.18200001 12880268
0.028998384 0.0010510506 0.18200001 12748684
0.029854232 0.0010510506 0.18200001 13932706
0.030710081 0.0010510506 0.18200001 13735327
0.031565931 0.0010510506 0.18200001 13406880
0.032421779 0.0010510506 0.18200001 14394542
0.033277623 0.0010510506 0.18200001 13209235
0.034133472 0.0010510506 0.18200001 13274001
0.03498932 0.0010510506 0.18200001 12879243
0.035845168 0.0010510506 0.18200001 13010059
0.036701016 0.0010510506 0.18200001 12878219
0.037350509 0.0010452756 0.18100001 13272718
0.038201656 0.0010452756 0.18100001 14128792
0.038837038 0.0010395006 0.18000001 13405839
0.03968348 0.0010395006 0.18000001 12156799
0.040529922 0.0010395006 0.18000001 10711413
-0.013293616 0.0019592859 0.18700001 8213846
-0.01234787 0.0019488084 0.186 10777974
-0.011226477 0.0019068987 0.18200001 11172732
-0.010370629 0.0019068987 0.18200001 11565693
-0.0095147807 0.0019068987 0.18200001 12223108
-0.0087065091 0.0019173762 0.18300001 12749452
-0.0078459587 0.0019173762 0.18300001 12682889
-0.0069854083 0.0019173762 0.18300001 12156545
-0.0061248573 0.0019173762 0.18300001 12484996
-0.0052643064 0.0019173762 0.18300001 12484483
-0.004403756 0.0019173762 0.18300001 12353926
-0.0035432056 0.0019173762 0.18300001 11172478
-0.0026826551 0.0019173762 0.18300001 11238271
-0.0018221044 0.0019173762 0.18300001 11830148
-0.00096155389 0.0019173762 0.18300001 12025729
-0.00010100334 0.0019173762 0.18300001 11827580
0.00075954717 0.0019173762 0.18300001 12353410
0.0016200979 0.0019173762 0.18300001 12748170
0.0024806485 0.0019173762 0.18300001 12418692
0.0033411989 0.0019173762 0.18300001 12221826
0.0042017493 0.0019173762 0.18300001 12288133
0.0050623002 0.0019173762 0.18300001 12222086
0.0059228512 0.0019173762 0.18300001 12748170
0.0067834011 0.0019173762 0.18300001 12616584
0.007643952 0.0019173762 0.18300001 12879502
0.0085045025 0.0019173762 0.18300001 12879502
0.0093650529 0.0019173762 0.18300001 13011088
0.010225603 0.0019173762 0.18300001 11564156
0.011086154 0.0019173762 0.18300001 12420235
0.011946704 0.0019173762 0.18300001 12552336
0.012807255 0.0019173762 0.18300001 12487311
0.013667806 0.0019173762 0.18300001 12025477
0.014528356 0.0019173762 0.18300001 11762305
0.015388906 0.0019173762 0.18300001 11893121
0.016249457 0.0019173762 0.18300001 12289164
0.017110009 0.0019173762 0.18300001 12420750
0.017970558 0.0019173762 0.18300001 11960969
0.01883111 0.0019173762 0.18300001 12290447
0.019691659 0.0019173762 0.18300001 12356240
0.020439902 0.0019068987 0.18200001 11434623
0.021295752 0.0019068987 0.18200001 11434623
0.022151599 0.0019068987 0.18200001 11829381
0.023007447 0.0019068987 0.18200001 11632515
0.023863295 0.0019068987 0.18200001 10646904
0.024719143 0.0019068987 0.18200001 10646906
0.025574993 0.0019068987 0.18200001 11039865
0.026430842 0.0019068987 0.18200001 11302008
0.027286686 0.0019068987 0.18200001 12353924
0.028142536 0.0019068987 0.18200001 12485510
0.028998384 0.0019068987 0.18200001 12551303
0.029854232 0.0019068987 0.18200001 11827582
0.030710081 0.0019068987 0.18200001 12024961
0.031565931 0.0019068987 0.18200001 11629949
0.032421779 0.0019068987 0.18200001 11170168
0.033277623 0.0019068987 0.18200001 11696512
0.034133472 0.0019068987 0.18200001 12091524
0.03498932 0.0019068987 0.18200001 11893375
0.035845168 0.0019068987 0.18200001 12090754
0.036701016 0.0019068987 0.18200001 11432824
0.037350509 0.0018964212 0.18100001 11169652
0.038201656 0.0018964212 0.18100001 10841457
0.038837038 0.0018859437 0.18000001 10777974
-0.016018264 0.0030208055 0.19900002 2894894
-0.014930891 0.0029904458 0.19700001 3287080
-0.01364906 0.0029145458 0.192 7756377
-0.012613416 0.0028841863 0.19000001 9200741
-0.011349845 0.0027931067 0.18400002 11568519
-0.010370629 0.0027627468 0.18200001 11107709
-0.0095670596 0.0027779269 0.18300001 11501183
-0.0087540857 0.0027931067 0.18400002 12223110
-0.0078888331 0.0027931067 0.18400002 12814477
-0.0070235799 0.0027931067 0.18400002 13209233
-0.0061583263 0.0027931067 0.18400002 13077647
-0.0052930736 0.0027931067 0.18400002 13209233
-0.0044278204 0.0027931067 0.18400002 12684174
-0.0035625673 0.0027931067 0.18400002 10777722
-0.0026973144 0.0027931067 0.18400002 10777720
-0.0018320613 0.0027931067 0.18400002 12092037
-0.00096680829 0.0027931067 0.18400002 11893373
-0.00010155528 0.0027931067 0.18400002 11827066
0.00076369772 0.0027931067 0.18400002 11892859
0.0016289508 0.0027931067 0.18400002 11761273
0.0024942039 0.0027931067 0.18400002 11826555
0.0033594568 0.0027931067 0.18400002 12285823
0.0042247097 0.0027931067 0.18400002 12944782
0.0050899629 0.0027931067 0.18400002 12747403
0.0059552165 0.0027931067 0.18400002 12879756
0.0068204692 0.0027931067 0.18400002 13208721
0.0076857223 0.0027931067 0.18400002 12813963
0.0085509755 0.0027931067 0.18400002 12485512
0.0094162282 0.0027931067 0.18400002 11564158
0.010281481 0.0027931067 0.18400002 11300984
0.011146734 0.0027931067 0.18400002 11827328
0.012011987 0.0027931067 0.18400002 12156295
0.01287724 0.0027931067 0.18400002 12486030
0.013742493 0.0027931067 0.18400002 12748430
0.014607747 0.0027931067 0.18400002 11696514
0.015472999 0.0027931067 0.18400002 11170170
0.016338252 0.0027931067 0.18400002 11433342
0.017203506 0.0027931067 0.18400002 11959684
0.018068759 0.0027931067 0.18400002 11895174
0.018934011 0.0027931067 0.18400002 11895689
0.019799264 0.0027931067 0.18400002 12158861
0.020552211 0.0027779269 0.18300001 11435138
0.021412762 0.0027779269 0.18300001 10974072
0.022273311 0.0027779269 0.18300001 11566209
0.023133863 0.0027779269 0.18300001 11961480
0.023994412 0.0027779269 0.18300001 11370629
0.024854964 0.0027779269 0.18300001 10975871
0.025715515 0.0027779269 0.18300001 11171966
0.026576066 0.0027779269 0.18300001 11368314
0.027436614 0.0027779269 0.18300001 11630971
0.028297165 0.0027779269 0.18300001 11104627
0.029157715 0.0027779269 0.18300001 11104627
0.030018266 0.0027779269 0.18300001 11302006
0.030878818 0.0027779269 0.18300001 12024961
0.031739369 0.0027779269 0.18300001 11893375
0.032599919 0.0027779269 0.18300001 11565180
0.033460468 0.0027779269 0.18300001 11565693
0.034133472 0.0027627468 0.18200001 11697279
0.03498932 0.0027627468 0.18200001 11828865
0.035845168 0.0027627468 0.18200001 11894658
0.036701016 0.0027627468 0.18200001 11170935
0.037350509 0.0027475669 0.18100001 10909046
-0.016098756 0.0039764778 0.2 2303525
-0.015082474 0.0039565954 0.19900002 2499877
-0.013933416 0.0038969484 0.19600001 5126715
-0.012878961 0.0038571835 0.19400001 7228750
-0.011658264 0.0037577716 0.18900001 9069409
-0.010370629 0.003618595 0.18200001 11174015
-0.0096193384 0.0036583599 0.18400002 11042427
-0.0088016624 0.003678242 0.185 11632767
-0.0079317065 0.003678242 0.185 11828865
-0.0070617511 0.003678242 0.185 12683661
-0.0061917952 0.003678242 0.185 12946831
-0.0053218398 0.003678242 0.185 13012624
-0.0044518844 0.003678242 0.185 12552075
-0.0035819288 0.003678242 0.185 11762305
-0.0027119736 0.003678242 0.185 11564926
-0.0018420181 0.003678242 0.185 11367031
-0.00097206264 0.003678242 0.185 11366517
-0.0001021072 0.003678242 0.185 11432308
0.00076784822 0.003678242 0.185 11695480
0.0016378037 0.003678242 0.185 12024445
0.0025077593 0.003678242 0.185 12484485
0.0033777144 0.003678242 0.185 13208208
0.0042476701 0.003678242 0.185 12878473
0.0051176255 0.003678242 0.185 12812680
0.0059875813 0.003678242 0.185 12812680
0.0068575363 0.003678242 0.185 12550278
0.0077274921 0.003678242 0.185 12287619
0.0085974475 0.003678242 0.185 12024447
0.0094674025 0.003678242 0.185 11695228
0.010337358 0.003678242 0.185 11563642
0.011207313 0.003678242 0.185 11695228
0.012077268 0.003678242 0.185 11958400
0.012947224 0.003678242 0.185 12682637
0.01381718 0.003678242 0.185 12486028
0.014687136 0.003678242 0.185 11629951
0.01555709 0.003678242 0.185 11235193
0.016427046 0.003678242 0.185 11827328
0.017297002 0.003678242 0.185 11696512
0.018166957 0.003678242 0.185 11170681
0.019036911 0.003678242 0.185 10908281
0.019906867 0.003678242 0.185 11039867
0.020664519 0.0036583599 0.18400002 10974074
0.021529771 0.0036583599 0.18400002 11237244
0.022395024 0.0036583599 0.18400002 11566209
0.023260277 0.0036583599 0.18400002 11368830
0.024125529 0.0036583599 0.18400002 11632515
0.024990784 0.0036583599 0.18400002 11436422
0.025856037 0.0036583599 0.18400002 11633029
0.026721291 0.0036583599 0.18400002 11895428
0.02758654 0.0036583599 0.18400002 11368312
0.028451795 0.0036583599 0.18400002 11170420
0.029317047 0.0036583599 0.18400002 11039347
0.030182302 0.0036583599 0.18400002 11499900
0.031047555 0.0036583599 0.18400002 11894658
0.031912807 0.0036583599 0.18400002 11960451
0.032778062 0.0036583599 0.18400002 11697279
0.033643313 0.0036583599 0.18400002 10842486
0.034321018 0.0036384773 0.18300001 10908279
0.035181571 0.0036384773 0.18300001 11039865
0.035845168 0.003618595 0.18200001 10974839
0.036701016 0.003618595 0.18200001 11436420
0.037556864 0.003618595 0.18200001 10452355
-0.015234056 0.0049415552 0.20100001 1843746
-0.014146684 0.0048923856 0.19900002 2431518
-0.013144507 0.0048678005 0.19800001 6770513
-0.012336787 0.0049169702 0.2 7491920
-0.0097238962 0.0045727822 0.186 11503750
-0.008849239 0.0045727822 0.186 11635334
-0.0079745799 0.0045727822 0.186 11568258
-0.0070999227 0.0045727822 0.186 11895426
-0.0062252646 0.0045727822 0.186 12486795
-0.0053506065 0.0045727822 0.186 12092037
-0.0044759484 0.0045727822 0.186 12091524
-0.0036012908 0.0045727822 0.186 12157317
-0.0027266329 0.0045727822 0.186 12025731
-0.001851975 0.0045727822 0.186 11893121
-0.00097731699 0.0045727822 0.186 11629949
-0.00010265913 0.0045727822 0.186 12747916
0.00077199872 0.0045727822 0.186 13274512
0.0016466568 0.0045727822 0.186 13208721
0.0025213147 0.0045727822 0.186 13010829
0.0033959725 0.0045727822 0.186 13208208
0.0042706304 0.0045727822 0.186 13010829
0.0051452885 0.0045727822 0.186 12813450
0.0060199467 0.0045727822 0.186 12287106
0.0068946043 0.0045727822 0.186 12484483
0.0077692624 0.0045727822 0.186 12681862
0.0086439196 0.0045727822 0.186 12287106
0.0095185777 0.0045727822 0.186 12023934
0.010393236 0.0045727822 0.186 11958141
0.011267894 0.0045727822 0.186 11892861
0.012142551 0.0045727822 0.186 11958654
0.013017209 0.0045727822 0.186 12222340
0.013891867 0.0045727822 0.186 12287879
0.014766525 0.0045727822 0.186 11827330
0.015641183 0.0045727822 0.186 11563644
0.016515842 0.0045727822 0.186 11366777
0.017390499 0.0045727822 0.186 11038582
0.018265158 0.0045727822 0.186 10974072
0.019139815 0.0045727822 0.186 11105658
0.020014472 0.0045727822 0.186 11039865
0.020776823 0.0045481971 0.185 11368830
0.021646779 0.0045481971 0.185 11500416
0.022516733 0.0045481971 0.185 11237244
0.023386689 0.0045481971 0.185 11895174
0.024256645 0.0045481971 0.185 12158859
0.025126601 0.0045481971 0.185 11962764
0.025996557 0.0045481971 0.185 11633799
0.026866512 0.0045481971 0.185 11632769
0.027736466 0.0045481971 0.185 11829635
0.028606422 0.0045481971 0.185 11303291
0.029476378 0.0045481971 0.185 10842740
0.030346334 0.0045481971 0.185 10842740
0.03121629 0.0045481971 0.185 11105912
0.032086246 0.0045481971 0.185 11829635
0.032956202 0.0045481971 0.185 11303804
0.033643313 0.004523613 0.18400002 10383216
0.034321018 0.004499028 0.18300001 10449525
0.035181571 0.004499028 0.18300001 10975869
0.035845168 0.0044744429 0.18200001 9792880
0.03690267 0.004499028 0.18300001 6507090
-0.015309848 0.0059160371 0.20200001 1843746
-0.01428886 0.0058867498 0.20100001 2236709
-0.013343666 0.0058867498 0.20100001 3286313
-0.012398471 0.0058867498 0.20100001 6178628
-0.010940443 0.0056231641 0.192 7163468
-0.009776175 0.0054767276 0.18700001 9136745
-0.0088968156 0.0054767276 0.18700001 11109253
-0.0080174543 0.0054767276 0.18700001 11503750
-0.0071380944 0.0054767276 0.18700001 11568260
-0.0062587336 0.0054767276 0.18700001 11895941
-0.0053793732 0.0054767276 0.18700001 12289416
-0.0045000128 0.0054767276 0.18700001 12355209
-0.0036206525 0.0054767276 0.18700001 12421002
