# .PCD v0.7 - Point Cloud Data file format
VERSION 0.7
FIELDS x y z rgb
SIZE 4 4 4 4
TYPE F F F U
COUNT 1 1 1 1
WIDTH 1102
HEIGHT 1
VIEWPOINT 0 0 0 1 0 0 0
POINTS 1102
DATA ascii
0.010337358 0.00019842009 0.185 13864337
0.011207313 0.00019842009 0.185 14850462
0.012077268 0.00019842009 0.185 14784412
0.012947224 0.00019842009 0.185 14521240
0.01381718 0.00019842009 0.185 13798544
0.014687136 0.00019842009 0.185 12551053
0.01555709 0.00019842009 0.185 12683409
0.016427046 0.00019842009 0.185 13141645
0.017297002 0.00019842009 0.185 13271430
0.018166957 0.00019842009 0.185 13205637
0.019036911 0.00019842009 0.185 13337223
0.019906867 0.00019842009 0.185 12680579
0.020776823 0.00019842009 0.185 13141643
0.021646779 0.00019842009 0.185 13340053
0.022516733 0.00019842009 0.185 11697029
0.023386689 0.00019842009 0.185 10513525
0.024256645 0.00019842009 0.185 13669532
0.025126601 0.00019842009 0.185 13866138
0.025996557 0.00019842009 0.185 14193820
0.026866512 0.00019842009 0.185 13602196
0.027736466 0.00019842009 0.185 15050412
0.028606422 0.00019842009 0.185 15444146
0.029476378 0.00019842009 0.185 16763092
0.030346334 0.00019842009 0.185 15901869
0.03121629 0.00019842009 0.185 16297908
0.032086246 0.00019842009 0.185 15178916
0.032956202 0.00019842009 0.185 16757694
0.033826154 0.00019842009 0.185 16757438
0.03469611 0.00019842009 0.185 16493495
0.035566065 0.00019842009 0.185 15968437
0.036436021 0.00019842009 0.185 16167358
0.037305977 0.00019842009 0.185 15245738
0.038175933 0.00019842009 0.185 14652829
0.039045889 0.00019842009 0.185 14520988
0.039915845 0.00019842009 0.185 13270921
0.040785797 0.00019842009 0.185 14323866
0.041430589 0.00019734756 0.18400002 13534091
0.042295843 0.00019734756 0.18400002 13205380
0.043395665 0.00019842009 0.185 12878212
0.044026349 0.00019734756 0.18400002 12880268
0.044891603 0.00019734756 0.18400002 11831180
0.04550818 0.00019627501 0.18300001 5520711
0.046368729 0.00019627501 0.18300001 4868429
0.047229279 0.00019627501 0.18300001 4606282
-0.015931698 0.0010799256 0.18700001 9868428
-0.015052337 0.0010799256 0.18700001 11314591
-0.014172978 0.0010799256 0.18700001 10586241
-0.013293616 0.0010799256 0.18700001 7492174
-0.012414256 0.0010799256 0.18700001 11039349
-0.011473212 0.0010741506 0.186 13669524
-0.010598554 0.0010741506 0.186 13995153
-0.0097238962 0.0010741506 0.186 15770022
-0.008849239 0.0010741506 0.186 16758203
-0.0079745799 0.0010741506 0.186 16759232
-0.0070999227 0.0010741506 0.186 15309471
-0.0061917952 0.0010683755 0.185 16097699
-0.0053218398 0.0010683755 0.185 16755886
-0.0044759484 0.0010741506 0.186 16623789
-0.0036012908 0.0010741506 0.186 15900068
-0.0027266329 0.0010741506 0.186 15375012
-0.001851975 0.0010741506 0.186 15835817
-0.00097206264 0.0010683755 0.185 15968943
-0.0001021072 0.0010683755 0.185 13735579
0.00076784822 0.0010683755 0.185 15049381
0.0016378037 0.0010683755 0.185 16165293
0.0025077593 0.0010683755 0.185 15176343
0.0033959725 0.0010741506 0.186 14978964
0.0042476701 0.0010683755 0.185 14125195
0.0051176255 0.0010683755 0.185 14784410
0.0060199467 0.0010741506 0.186 13472407
0.0068946043 0.0010741506 0.186 10776693
0.0077692624 0.0010741506 0.186 12090500
0.0086439196 0.0010741506 0.186 13470097
0.0094674025 0.0010683755 0.185 13995669
0.010337358 0.0010683755 0.185 13667474
0.011207313 0.0010683755 0.185 14324118
0.012077268 0.0010683755 0.185 14849435
0.012947224 0.0010683755 0.185 14520470
0.01381718 0.0010683755 0.185 13929108
0.014687136 0.0010683755 0.185 11958402
0.01555709 0.0010683755 0.185 11564928
0.016427046 0.0010683755 0.185 12681094
0.017297002 0.0010683755 0.185 13468555
0.018166957 0.0010683755 0.185 13929106
0.019036911 0.0010683755 0.185 13863313
0.019906867 0.0010683755 0.185 14258841
0.020776823 0.0010683755 0.185 14325404
0.021646779 0.0010683755 0.185 13471126
0.022516733 0.0010683755 0.185 12747916
0.023386689 0.0010683755 0.185 12682125
0.024256645 0.0010683755 0.185 12945295
0.025126601 0.0010683755 0.185 13471126
0.025996557 0.0010683755 0.185 13207954
0.026866512 0.0010683755 0.185 11366779
0.027886393 0.0010741506 0.186 12880016
0.028606422 0.0010683755 0.185 13075852
0.029476378 0.0010683755 0.185 14324636
0.030346334 0.0010683755 0.185 14389400
0.03121629 0.0010683755 0.185 14915998
0.032086246 0.0010683755 0.185 14652826
0.032956202 0.0010683755 0.185 14718365
0.033826154 0.0010683755 0.185 14059665
0.03469611 0.0010683755 0.185 13270921
0.035566065 0.0010683755 0.185 13402507
0.036436021 0.0010683755 0.185 12811397
0.037305977 0.0010683755 0.185 13470097
0.038175933 0.0010683755 0.185 13404302
0.039045889 0.0010683755 0.185 13470095
0.039915845 0.0010683755 0.185 13337741
0.040785797 0.0010683755 0.185 12614018
0.041655753 0.0010683755 0.185 12483200
0.042525709 0.0010683755 0.185 12944518
0.043395665 0.0010683755 0.185 13144210
0.044026349 0.0010626006 0.18400002 9988976
0.044647627 0.0010568256 0.18300001 5979463
0.04550818 0.0010568256 0.18300001 5130318
0.046115346 0.0010510506 0.18200001 4737100
0.046971194 0.0010510506 0.18200001 4606284
-0.015931698 0.0019592859 0.18700001 4737096
-0.015052337 0.0019592859 0.18700001 4670016
-0.014172978 0.0019592859 0.18700001 5129282
-0.013293616 0.0019592859 0.18700001 5654596
-0.012414256 0.0019592859 0.18700001 10518911
-0.011534896 0.0019592859 0.18700001 12553608
-0.010655536 0.0019592859 0.18700001 12550778
-0.009776175 0.0019592859 0.18700001 13139840
-0.008849239 0.0019488084 0.186 13664644
-0.0079745799 0.0019488084 0.186 14125708
-0.0070999227 0.0019488084 0.186 13928329
-0.0062252646 0.0019488084 0.186 14058632
-0.0053506065 0.0019488084 0.186 14518156
-0.0044759484 0.0019488084 0.186 14847121
-0.0036012908 0.0019488084 0.186 15111320
-0.0027266329 0.0019488084 0.186 15046299
-0.001851975 0.0019488084 0.186 15309471
-0.00097731699 0.0019488084 0.186 15705512
-0.00010265913 0.0019488084 0.186 14195101
0.00077199872 0.0019488084 0.186 14391964
0.0016466568 0.0019488084 0.186 14718876
0.0025213147 0.0019488084 0.186 14125199
0.0033959725 0.0019488084 0.186 14519185
0.0042706304 0.0019488084 0.186 14716564
0.0051452885 0.0019488084 0.186 14849433
0.0060199467 0.0019488084 0.186 15244966
0.0068946043 0.0019488084 0.186 13865366
0.0077692624 0.0019488084 0.186 13601683
0.0086439196 0.0019488084 0.186 14127257
0.0095185777 0.0019488084 0.186 14192278
0.010393236 0.0019488084 0.186 14192278
0.011267894 0.0019488084 0.186 14652572
0.012142551 0.0019488084 0.186 14652826
0.013017209 0.0019488084 0.186 14258068
0.013891867 0.0019488084 0.186 14849951
0.014766525 0.0019488084 0.186 13141391
0.015641183 0.0019488084 0.186 12286852
0.016515842 0.0019488084 0.186 13207438
0.017390499 0.0019488084 0.186 13666706
0.018265158 0.0019488084 0.186 14258071
0.019139815 0.0019488084 0.186 14718876
0.020014472 0.0019488084 0.186 14522267
0.020889131 0.0019488084 0.186 14391197
0.021763789 0.0019488084 0.186 13866138
0.022638446 0.0019488084 0.186 14392741
0.023513105 0.0019488084 0.186 14260644
0.024387762 0.0019488084 0.186 13339540
0.025262421 0.0019488084 0.186 13996954
0.02613708 0.0019488084 0.186 13930907
0.027011737 0.0019488084 0.186 12682125
0.027886393 0.0019488084 0.186 12485260
0.028761052 0.0019488084 0.186 12616584
0.029635709 0.0019488084 0.186 13009546
0.030510368 0.0019488084 0.186 13731727
0.031385027 0.0019488084 0.186 13337739
0.032259684 0.0019488084 0.186 12745602
0.033134341 0.0019488084 0.186 13139590
0.034008998 0.0019488084 0.186 13731729
0.034883656 0.0019488084 0.186 13732499
0.035758317 0.0019488084 0.186 13403532
0.036632974 0.0019488084 0.186 13272716
0.037507631 0.0019488084 0.186 13272716
0.038382288 0.0019488084 0.186 13535888
0.039256949 0.0019488084 0.186 13667474
0.040131606 0.0019488084 0.186 13667474
0.041006263 0.0019488084 0.186 12614788
0.041880921 0.0019488084 0.186 13208208
0.042525709 0.0019383309 0.185 12288131
0.043395665 0.0019383309 0.185 10316909
0.04426562 0.0019383309 0.185 9268596
0.044647627 0.0019173762 0.18300001 4997447
0.04550818 0.0019173762 0.18300001 4802634
0.046368729 0.0019173762 0.18300001 4671305
0.047487359 0.0019278537 0.18400002 4672075
-0.015931698 0.0028386463 0.18700001 4343112
-0.015052337 0.0028386463 0.18700001 4540489
-0.014172978 0.0028386463 0.18700001 4737866
-0.013293616 0.0028386463 0.18700001 5197647
-0.012414256 0.0028386463 0.18700001 5128517
-0.011534896 0.0028386463 0.18700001 9136747
-0.010655536 0.0028386463 0.18700001 11303541
-0.009776175 0.0028386463 0.18700001 12222590
-0.0088968156 0.0028386463 0.18700001 13405837
-0.0080174543 0.0028386463 0.18700001 13272198
-0.0071380944 0.0028386463 0.18700001 13271171
-0.0062587336 0.0028386463 0.18700001 13336962
-0.0053793732 0.0028386463 0.18700001 13993609
-0.0045000128 0.0028386463 0.18700001 14584978
-0.0036206525 0.0028386463 0.18700001 13927818
-0.0027412924 0.0028386463 0.18700001 14915226
-0.0018619319 0.0028386463 0.18700001 14849433
-0.00098257139 0.0028386463 0.18700001 14389909
-0.00010321107 0.0028386463 0.18700001 13406100
0.00077614927 0.0028386463 0.18700001 13735063
0.0016555098 0.0028386463 0.18700001 13206153
0.0025348703 0.0028386463 0.18700001 13599884
0.0034142304 0.0028386463 0.18700001 14454423
0.0042935908 0.0028386463 0.18700001 14848922
0.0051729511 0.0028386463 0.18700001 14848922
0.006052312 0.0028386463 0.18700001 14849181
0.0069316719 0.0028386463 0.18700001 14192023
0.0078110327 0.0028386463 0.18700001 13863058
0.0086903926 0.0028386463 0.18700001 14586011
0.009569753 0.0028386463 0.18700001 15111840
0.010449113 0.0028386463 0.18700001 14783388
0.011328474 0.0028386463 0.18700001 15441318
0.012207834 0.0028386463 0.18700001 14454423
0.013087194 0.0028386463 0.18700001 15113125
0.013966555 0.0028386463 0.18700001 13336971
0.014845916 0.0028386463 0.18700001 14587808
0.015725276 0.0028386463 0.18700001 14588576
0.016604636 0.0028386463 0.18700001 14522013
0.017483996 0.0028386463 0.18700001 13863313
0.018363358 0.0028386463 0.18700001 13601681
0.019242717 0.0028386463 0.18700001 13404304
0.020122077 0.0028386463 0.18700001 14653601
0.021001438 0.0028386463 0.18700001 14456738
0.0218808 0.0028386463 0.18700001 14128286
0.022760158 0.0028386463 0.18700001 13866397
0.023639519 0.0028386463 0.18700001 14129569
0.024518881 0.0028386463 0.18700001 12945295
0.025398241 0.0028386463 0.18700001 13141645
0.026277602 0.0028386463 0.18700001 13864855
0.027156962 0.0028386463 0.18700001 13997470
0.028036321 0.0028386463 0.18700001 13340569
0.028915681 0.0028386463 0.18700001 12616330
0.029795041 0.0028386463 0.18700001 13271946
0.030674402 0.0028386463 0.18700001 13337993
0.031553764 0.0028386463 0.18700001 13140362
0.032433122 0.0028386463 0.18700001 12811397
0.033312485 0.0028386463 0.18700001 12811397
0.034191843 0.0028386463 0.18700001 13074569
0.035071205 0.0028386463 0.18700001 13470097
0.035950564 0.0028386463 0.18700001 13470097
0.036829926 0.0028386463 0.18700001 13075852
0.037709285 0.0028386463 0.18700001 12550278
0.038588647 0.0028386463 0.18700001 12681864
0.039468009 0.0028386463 0.18700001 13208208
0.040347368 0.0028386463 0.18700001 12747657
0.041006263 0.0028234664 0.186 12879241
0.041880921 0.0028234664 0.186 12617096
0.042525709 0.0028082863 0.185 12290184
0.043395665 0.0028082863 0.185 10057079
0.04426562 0.0028082863 0.185 4996933
0.044647627 0.0027779269 0.18300001 4671307
0.045756858 0.0027931067 0.18400002 4606284
0.046622109 0.0027931067 0.18400002 4475466
0.047487359 0.0027931067 0.18400002 4541259
-0.015931698 0.0037180067 0.18700001 3882559
-0.015052337 0.0037180067 0.18700001 4079938
-0.014172978 0.0037180067 0.18700001 4672075
-0.013293616 0.0037180067 0.18700001 4013118
-0.012414256 0.0037180067 0.18700001 3684153
-0.011534896 0.0037180067 0.18700001 4206645
-0.010655536 0.0037180067 0.18700001 9597298
-0.0098284548 0.0037378892 0.18800001 11699076
-0.0089443922 0.0037378892 0.18800001 12157830
-0.0080603287 0.0037378892 0.18800001 12748168
-0.0071762661 0.0037378892 0.18800001 13009798
-0.006292203 0.0037378892 0.18800001 14718876
-0.0054081399 0.0037378892 0.18800001 14521238
-0.0045240773 0.0037378892 0.18800001 14125710
-0.0036400142 0.0037378892 0.18800001 14059917
-0.0027559516 0.0037378892 0.18800001 13994124
-0.0018718888 0.0037378892 0.18800001 13994124
-0.0009878258 0.0037378892 0.18800001 13929360
-0.000103763 0.0037378892 0.18800001 12485512
0.00078029983 0.0037378892 0.18800001 12748684
0.0016643627 0.0037378892 0.18800001 13865368
0.0025484257 0.0037378892 0.18800001 14258841
0.0034324883 0.0037378892 0.18800001 13731727
0.0043165511 0.0037378892 0.18800001 14388884
0.0052006142 0.0037378892 0.18800001 14848922
0.0060846773 0.0037378892 0.18800001 14125460
0.0069687399 0.0037378892 0.18800001 13797265
0.007852803 0.0037378892 0.18800001 14652574
0.0087368656 0.0037378892 0.18800001 14323609
0.0096209282 0.0037378892 0.18800001 14718367
0.010504992 0.0037378892 0.18800001 14717082
0.011389053 0.0037378892 0.18800001 14980767
0.012273116 0.0037378892 0.18800001 14784158
0.01315718 0.0037378892 0.18800001 13928854
0.014041243 0.0037378892 0.18800001 12876166
0.014925306 0.0037378892 0.18800001 13995417
0.015809368 0.0037378892 0.18800001 13996441
0.016693432 0.0037378892 0.18800001 14719394
0.017577494 0.0037378892 0.18800001 15047587
0.018461557 0.0037378892 0.18800001 13535120
0.019345619 0.0037378892 0.18800001 13075339
0.020229682 0.0037378892 0.18800001 13469843
0.021113746 0.0037378892 0.18800001 13601429
0.021997809 0.0037378892 0.18800001 12943499
0.022881871 0.0037378892 0.18800001 13075598
0.023765935 0.0037378892 0.18800001 13405846
0.024649998 0.0037378892 0.18800001 13142674
0.02553406 0.0037378892 0.18800001 12154750
0.026418123 0.0037378892 0.18800001 13667476
0.027302187 0.0037378892 0.18800001 13339794
0.028186247 0.0037378892 0.18800001 13472925
0.02907031 0.0037378892 0.18800001 13209753
0.029954374 0.0037378892 0.18800001 13865368
0.030838437 0.0037378892 0.18800001 14258841
0.031722501 0.0037378892 0.18800001 13336971
0.032606564 0.0037378892 0.18800001 12745604
0.033490628 0.0037378892 0.18800001 12548995
0.034374688 0.0037378892 0.18800001 13404817
0.035258751 0.0037378892 0.18800001 13667989
0.036142815 0.0037378892 0.18800001 13602196
0.037026878 0.0037378892 0.18800001 12089727
0.037910938 0.0037378892 0.18800001 11564156
0.038795002 0.0037378892 0.18800001 11959684
0.039679065 0.0037378892 0.18800001 12025731
0.040563129 0.0037378892 0.18800001 12748684
0.041226726 0.0037180067 0.18700001 13209233
0.041880921 0.0036981243 0.186 12289414
0.042755578 0.0036981243 0.186 9134950
0.043395665 0.003678242 0.185 5588038
0.04426562 0.003678242 0.185 4868427
0.045135576 0.003678242 0.185 4475466
-0.015931698 0.0045973673 0.18700001 3619389
-0.015052337 0.0045973673 0.18700001 3685180
-0.014172978 0.0045973673 0.18700001 4540489
-0.013293616 0.0045973673 0.18700001 3618360
-0.012414256 0.0045973673 0.18700001 4079166
-0.011534896 0.0045973673 0.18700001 4407874
-0.010655536 0.0045973673 0.18700001 4798269
-0.0098284548 0.0046219518 0.18800001 8412252
-0.0089443922 0.0046219518 0.18800001 10777460
-0.0080603287 0.0046219518 0.18800001 11762557
-0.0072144377 0.0046465369 0.18900001 12288131
-0.0063256719 0.0046465369 0.18900001 13272716
-0.0054369066 0.0046465369 0.18900001 14455704
-0.0045481413 0.0046465369 0.18900001 14915998
-0.0036593762 0.0046465369 0.18900001 14850205
-0.0027706109 0.0046465369 0.18900001 14915228
-0.0018818455 0.0046465369 0.18900001 14652056
-0.0009930802 0.0046465369 0.18900001 15113380
-0.00010431492 0.0046465369 0.18900001 13866138
0.00078445039 0.0046465369 0.18900001 11761535
0.0016732158 0.0046465369 0.18900001 13932190
0.0025619811 0.0046465369 0.18900001 13470095
0.0034507464 0.0046465369 0.18900001 13600911
0.0043395115 0.0046465369 0.18900001 13731729
0.0052282768 0.0046465369 0.18900001 13534093
0.0061170426 0.0046465369 0.18900001 13599116
0.0070058075 0.0046465369 0.18900001 13927568
0.0078945737 0.0046465369 0.18900001 15375012
0.0087833386 0.0046465369 0.18900001 14980254
0.0096721034 0.0046465369 0.18900001 15046047
0.010560869 0.0046465369 0.18900001 15375012
0.011449634 0.0046465369 0.18900001 14980254
0.012338399 0.0046465369 0.18900001 13994644
0.013227165 0.0046465369 0.18900001 13402510
0.014115931 0.0046465369 0.18900001 12876168
0.015004696 0.0046465369 0.18900001 13007754
0.015893461 0.0046465369 0.18900001 13534096
0.016782226 0.0046465369 0.18900001 15376554
0.017670993 0.0046465369 0.18900001 15310504
0.018559758 0.0046465369 0.18900001 13402512
0.019448522 0.0046465369 0.18900001 12876938
0.020337287 0.0046465369 0.18900001 13336717
0.021226054 0.0046465369 0.18900001 13140108
0.022114819 0.0046465369 0.18900001 13008522
0.023003584 0.0046465369 0.18900001 12680840
0.023892349 0.0046465369 0.18900001 12484746
0.024781115 0.0046465369 0.18900001 12616844
0.02566988 0.0046465369 0.18900001 13142674
0.026558645 0.0046465369 0.18900001 13208208
0.027447412 0.0046465369 0.18900001 13339794
0.028336175 0.0046465369 0.18900001 13603741
0.02922494 0.0046465369 0.18900001 13802405
0.030113706 0.0046465369 0.18900001 12945297
0.031002471 0.0046465369 0.18900001 13470097
0.031891238 0.0046465369 0.18900001 13535890
0.032780003 0.0046465369 0.18900001 13339024
0.033668768 0.0046465369 0.18900001 12089473
0.034557533 0.0046465369 0.18900001 12221572
0.035446297 0.0046465369 0.18900001 12222340
0.036335062 0.0046465369 0.18900001 13209233
0.037223827 0.0046465369 0.18900001 13078419
0.038112596 0.0046465369 0.18900001 11630719
0.039001361 0.0046465369 0.18900001 11499646
0.039679065 0.0046219518 0.18800001 11895174
0.040563129 0.0046219518 0.18800001 12158346
0.041226726 0.0045973673 0.18700001 9263708
0.041880921 0.0045727822 0.186 8739161
-0.014172978 0.0054767276 0.18700001 4211526
-0.013293616 0.0054767276 0.18700001 4211524
-0.012414256 0.0054767276 0.18700001 3685180
-0.011534896 0.0054767276 0.18700001 3619387
-0.010655536 0.0054767276 0.18700001 4340030
-0.0098284548 0.0055060149 0.18800001 7822431
-0.0089919688 0.0055353022 0.18900001 9069409
-0.008103203 0.0055353022 0.18900001 11434877
-0.0072526094 0.0055645895 0.19000001 11828863
-0.0063591413 0.0055645895 0.19000001 11761273
-0.0054656737 0.0055645895 0.19000001 13339024
-0.0045722057 0.0055645895 0.19000001 13996441
-0.0036787379 0.0055645895 0.19000001 14719394
-0.0027852703 0.0055645895 0.19000001 14916003
-0.0018918024 0.0055645895 0.19000001 15047589
-0.00099833461 0.0055645895 0.19000001 14522015
-0.00010486686 0.0055645895 0.19000001 14062234
0.00078860088 0.0055645895 0.19000001 12089473
0.0016820688 0.0055645895 0.19000001 12418440
0.0025755367 0.0055645895 0.19000001 12876420
0.0034690043 0.0055645895 0.19000001 12876420
0.0043624719 0.0055645895 0.19000001 13402507
0.0052559399 0.0055645895 0.19000001 13598601
0.0061494079 0.0055645895 0.19000001 14454164
0.0070428755 0.0055645895 0.19000001 14782359
0.0079363436 0.0055645895 0.19000001 14717082
0.0088298116 0.0055645895 0.19000001 14519703
0.0097232787 0.0055645895 0.19000001 14584726
0.010616747 0.0055645895 0.19000001 14584726
0.011510214 0.0055645895 0.19000001 14388117
0.012403682 0.0055645895 0.19000001 13928079
0.01329715 0.0055645895 0.19000001 13468300
0.014190618 0.0055645895 0.19000001 13270667
0.015084086 0.0055645895 0.19000001 13598862
0.015977552 0.0055645895 0.19000001 13534093
0.016871022 0.0055645895 0.19000001 14718367
0.01776449 0.0055645895 0.19000001 14652574
0.018657958 0.0055645895 0.19000001 14323357
0.019551424 0.0055645895 0.19000001 13402253
0.020444892 0.0055645895 0.19000001 13008522
0.02133836 0.0055645895 0.19000001 12745350
0.022231828 0.0055645895 0.19000001 12746120
0.023125295 0.0055645895 0.19000001 12746120
0.024018764 0.0055645895 0.19000001 12747403
0.024912233 0.0055645895 0.19000001 12682123
0.025805701 0.0055645895 0.19000001 13142674
0.026699169 0.0055645895 0.19000001 12682123
0.027592637 0.0055645895 0.19000001 13404563
0.028486101 0.0055645895 0.19000001 13669018
0.029379569 0.0055645895 0.19000001 14526128
0.030273039 0.0055645895 0.19000001 13539233
0.031166507 0.0055645895 0.19000001 13274260
0.032059975 0.0055645895 0.19000001 12088957
0.032953441 0.0055645895 0.19000001 12089727
0.033846911 0.0055645895 0.19000001 12222086
0.034740377 0.0055645895 0.19000001 12157063
0.035633843 0.0055645895 0.19000001 12880786
0.036527313 0.0055645895 0.19000001 12485512
0.037420779 0.0055645895 0.19000001 12288133
0.038314249 0.0055645895 0.19000001 12157317
0.039207716 0.0055645895 0.19000001 11433594
0.039890125 0.0055353022 0.18900001 11104375
0.04077889 0.0055353022 0.18900001 9921384
0.041447189 0.0055060149 0.18800001 9527393
-0.013293616 0.0063560875 0.18700001 3817538
-0.012414256 0.0063560875 0.18700001 3883844
-0.011534896 0.0063560875 0.18700001 3949122
-0.010655536 0.0063560875 0.18700001 3685180
-0.0098284548 0.0063900775 0.18800001 3682098
-0.0089919688 0.0064240671 0.18900001 8612199
-0.0081460774 0.0064580571 0.19000001 10647671
-0.007290781 0.0064920471 0.19100001 12027012
-0.0063926107 0.0064920471 0.19100001 12947598
-0.0054944404 0.0064920471 0.19100001 12288131
-0.0045962702 0.0064920471 0.19100001 12747655
-0.0036980996 0.0064920471 0.19100001 13271178
-0.0027999296 0.0064920471 0.19100001 14126487
-0.0019017593 0.0064920471 0.19100001 14455450
-0.001003589 0.0064920471 0.19100001 14324634
-0.00010541879 0.0064920471 0.19100001 14127257
0.00079275144 0.0064920471 0.19100001 13337741
0.0016909218 0.0064920471 0.19100001 13140108
0.0025890921 0.0064920471 0.19100001 13205128
0.0034872622 0.0064920471 0.19100001 13007749
0.0043854327 0.0064920471 0.19100001 13598601
0.005283603 0.0064920471 0.19100001 15572391
0.0061817733 0.0064920471 0.19100001 15308703
0.0070799435 0.0064920471 0.19100001 15242910
0.0079781143 0.0064920471 0.19100001 15375266
0.0088762837 0.0064920471 0.19100001 14849433
0.0097744539 0.0064920471 0.19100001 14519957
0.010672624 0.0064920471 0.19100001 14125199
0.011570795 0.0064920471 0.19100001 14519957
0.012468965 0.0064920471 0.19100001 14454164
0.013367135 0.0064920471 0.19100001 13993613
0.014265305 0.0064920471 0.19100001 13598601
0.015163477 0.0064920471 0.19100001 13730187
0.016061645 0.0064920471 0.19100001 13599114
0.016959816 0.0064920471 0.19100001 13664907
0.017857987 0.0064920471 0.19100001 13863058
0.018756157 0.0064920471 0.19100001 13797265
0.019654326 0.0064920471 0.19100001 13336971
0.020552497 0.0064920471 0.19100001 13864085
0.021450669 0.0064920471 0.19100001 13140362
0.022348838 0.0064920471 0.19100001 13271948
0.023247007 0.0064920471 0.19100001 14127773
0.024145178 0.0064920471 0.19100001 14062493
0.02504335 0.0064920471 0.19100001 13339540
0.025941519 0.0064920471 0.19100001 13142674
0.02683969 0.0064920471 0.19100001 12418951
0.027737861 0.0064920471 0.19100001 12484233
0.028636029 0.0064920471 0.19100001 13207956
0.0295342 0.0064920471 0.19100001 13604511
0.03043237 0.0064920471 0.19100001 13408417
0.031330541 0.0064920471 0.19100001 13274262
0.032228712 0.0064920471 0.19100001 12023934
0.033126883 0.0064920471 0.19100001 12156033
0.034025054 0.0064920471 0.19100001 12353926
0.034923222 0.0064920471 0.19100001 11827582
0.035821389 0.0064920471 0.19100001 12024961
0.036719561 0.0064920471 0.19100001 11893121
0.037617732 0.0064920471 0.19100001 11894145
0.038515903 0.0064920471 0.19100001 12223110
0.039414074 0.0064920471 0.19100001 11236215
0.040101185 0.0064580571 0.19000001 10775923
0.04077889 0.0064240671 0.18900001 10382448
-0.0081460774 0.0073515251 0.19000001 8676196
-0.007290781 0.0073902179 0.19100001 11107709
-0.0064260792 0.0074289092 0.192 11369082
-0.0055232067 0.0074289092 0.192 11697277
-0.0046203341 0.0074289092 0.192 12617096
-0.0037174614 0.0074289092 0.192 13010057
-0.0028145888 0.0074289092 0.192 13470095
-0.0019117161 0.0074289092 0.192 13864085
-0.0010088434 0.0074289092 0.192 13535120
-0.00010597071 0.0074289092 0.192 13666706
0.00079690194 0.0074289092 0.192 13797522
0.0016997746 0.0074289092 0.192 13665936
0.0026026473 0.0074289092 0.192 13336714
0.0035055198 0.0074289092 0.192 13664394
0.0044083926 0.0074289092 0.192 14717082
0.0053112651 0.0074289092 0.192 15046047
0.0062141381 0.0074289092 0.192 15177887
0.0071170107 0.0074289092 0.192 15112094
0.0080198841 0.0074289092 0.192 14850205
0.0089227557 0.0074289092 0.192 13402759
0.0098256283 0.0074289092 0.192 14389400
0.010728502 0.0074289092 0.192 13534091
0.011631373 0.0074289092 0.192 13534093
0.012534246 0.0074289092 0.192 13534093
0.013437119 0.0074289092 0.192 14980254
0.014339992 0.0074289092 0.192 15045531
0.015242865 0.0074289092 0.192 13993613
0.016145736 0.0074289092 0.192 13928079
0.01704861 0.0074289092 0.192 13336714
0.017951483 0.0074289092 0.192 12744834
0.018854355 0.0074289092 0.192 13535636
0.01986013 0.0074676014 0.193 13864855
0.020660101 0.0074289092 0.192 13996954
0.021562973 0.0074289092 0.192 13864855
0.022465847 0.0074289092 0.192 13798292
0.023368718 0.0074289092 0.192 14128027
0.024271591 0.0074289092 0.192 13931161
0.025174465 0.0074289092 0.192 13470356
0.026077338 0.0074289092 0.192 12944782
0.02698021 0.0074289092 0.192 12681864
0.027883084 0.0074289092 0.192 12089473
0.028785953 0.0074289092 0.192 13274262
0.029688828 0.0074289092 0.192 12749202
0.0305917 0.0074289092 0.192 13737380
0.031494573 0.0074289092 0.192 12354957
0.032397445 0.0074289092 0.192 12682637
0.033300318 0.0074289092 0.192 12813709
0.03420319 0.0074289092 0.192 12813709
0.035106063 0.0074289092 0.192 12551051
0.036008935 0.0074289092 0.192 12617614
0.036911808 0.0074289092 0.192 12551821
0.03781468 0.0074289092 0.192 12026244
0.038717553 0.0074289092 0.192 11565693
0.039620429 0.0074289092 0.192 11105142
0.040312245 0.0073902179 0.19100001 9790311
0.04077889 0.0073128329 0.18900001 9134180
-0.0073289522 0.0083317813 0.192 8477531
-0.0064260792 0.0083317813 0.192 11041916
-0.0055519734 0.0083751762 0.193 10974837
-0.0046443981 0.0083751762 0.193 12486793
-0.0037368231 0.0083751762 0.193 12683913
-0.0028292481 0.0083751762 0.193 13274253
-0.001921673 0.0083751762 0.193 13076104
-0.0010140978 0.0083751762 0.193 13206923
-0.00010652265 0.0083751762 0.193 13337739
0.00080105243 0.0083751762 0.193 13403534
0.0017086277 0.0083751762 0.193 14652831
0.0026162029 0.0083751762 0.193 13336712
0.0035237779 0.0083751762 0.193 13928079
0.004431353 0.0083751762 0.193 13993872
0.0053389282 0.0083751762 0.193 14717336
0.0062465039 0.0083751762 0.193 15046814
0.0071540787 0.0083751762 0.193 14521240
0.0080616539 0.0083751762 0.193 13665934
0.0089692287 0.0083751762 0.193 13994899
0.0098768035 0.0083751762 0.193 13074569
0.010784379 0.0083751762 0.193 13205901
0.011691954 0.0083751762 0.193 12876936
0.012599529 0.0083751762 0.193 12811397
0.013507104 0.0083751762 0.193 13204356
0.01441468 0.0083751762 0.193 14848668
0.015322255 0.0083751762 0.193 14454677
0.016229829 0.0083751762 0.193 14323091
0.017137405 0.0083751762 0.193 13863056
0.01804498 0.0083751762 0.193 12877190
0.018952556 0.0083751762 0.193 12220543
0.019963032 0.0084185712 0.19400001 13339794
0.020875311 0.0084185712 0.19400001 12813196
0.021675281 0.0083751762 0.193 13470610
0.022699866 0.0084185712 0.19400001 13930648
0.023612143 0.0084185712 0.19400001 13470097
0.024398006 0.0083751762 0.193 12680840
0.025436699 0.0084185712 0.19400001 12615301
0.026213158 0.0083751762 0.193 12681094
0.027120734 0.0083751762 0.193 12812680
0.028028307 0.0083751762 0.193 12879243
0.028935881 0.0083751762 0.193 12879502
0.029843457 0.0083751762 0.193 12420235
0.030751033 0.0083751762 0.193 11895176
0.031658608 0.0083751762 0.193 12356240
0.032566182 0.0083751762 0.193 12091783
0.03347376 0.0083751762 0.193 12354442
0.034559477 0.0084185712 0.19400001 12551821
0.035471752 0.0084185712 0.19400001 12222856
0.036384027 0.0084185712 0.19400001 11433853
0.037104059 0.0083751762 0.193 11105142
0.038011633 0.0083751762 0.193 11369084
0.03891921 0.0083751762 0.193 11435390
0.039826784 0.0083751762 0.193 9725286
0.040312245 0.0082883872 0.19100001 9594470
-0.0082318243 0.0092346547 0.192 5327695
-0.0073671238 0.0092827519 0.193 6440778
-0.0064260792 0.0092346547 0.192 8807012
-0.00558074 0.0093308492 0.19400001 10713210
-0.0046684626 0.0093308492 0.19400001 10843767
-0.0037561848 0.0093308492 0.19400001 11829894
-0.0028439073 0.0093308492 0.19400001 12355209
-0.0019316298 0.0093308492 0.19400001 12748684
-0.0010193522 0.0093308492 0.19400001 13208208
-0.00010762651 0.0093789464 0.19500001 13931161
0.00080935354 0.0093789464 0.19500001 13602196
0.0017263338 0.0093789464 0.19500001 13404817
0.0026433137 0.0093789464 0.19500001 14127255
0.0035602937 0.0093789464 0.19500001 14258071
0.0044772737 0.0093789464 0.19500001 14455447
0.0053942539 0.0093789464 0.19500001 14060689
0.0063112346 0.0093789464 0.19500001 13797517
0.0072282143 0.0093789464 0.19500001 14126485
0.0081451945 0.0093789464 0.19500001 13206925
0.0090621747 0.0093789464 0.19500001 13009546
0.009979154 0.0093789464 0.19500001 12548741
0.010896134 0.0093789464 0.19500001 12614534
0.011813114 0.0093789464 0.19500001 12745604
0.012730094 0.0093789464 0.19500001 13206155
0.013647075 0.0093789464 0.19500001 13402762
0.014564055 0.0093789464 0.19500001 13205383
0.015481035 0.0093789464 0.19500001 13665934
0.016398015 0.0093789464 0.19500001 14060435
0.017314995 0.0093789464 0.19500001 13402764
0.018231975 0.0093789464 0.19500001 13864085
0.019148955 0.0093789464 0.19500001 13667989
0.020065935 0.0093789464 0.19500001 12747405
0.020982916 0.0093789464 0.19500001 12221061
0.021899896 0.0093789464 0.19500001 13799321
0.022816876 0.0093789464 0.19500001 13667476
0.023733856 0.0093789464 0.19500001 13207438
0.024650836 0.0093789464 0.19500001 13141645
0.025567817 0.0093789464 0.19500001 13010829
0.026484797 0.0093789464 0.19500001 12945034
0.027401777 0.0093789464 0.19500001 12681862
0.028318757 0.0093789464 0.19500001 12419203
0.029235736 0.0093789464 0.19500001 12156547
0.030152716 0.0093789464 0.19500001 12354696
0.031069696 0.0093789464 0.19500001 12290186
0.031986676 0.0093789464 0.19500001 12619926
0.032903656 0.0093789464 0.19500001 12487824
0.033820637 0.0093789464 0.19500001 11697279
0.034737617 0.0093789464 0.19500001 11631486
0.035654597 0.0093789464 0.19500001 11303291
0.036571577 0.0093789464 0.19500001 11040119
0.037296306 0.0093308492 0.19400001 11040632
0.038208585 0.0093308492 0.19400001 10580081
0.039120864 0.0093308492 0.19400001 9528677
0.039826784 0.0092827519 0.193 9594983
-0.0064595486 0.010190327 0.193 6834253
-0.0056095067 0.010295927 0.19500001 9727598
-0.004692527 0.010295927 0.19500001 10253683
-0.0037949085 0.010348726 0.19600001 11041662
-0.0028732261 0.010348726 0.19600001 11501697
-0.0019515436 0.010348726 0.19600001 10777460
-0.0010298609 0.010348726 0.19600001 11237246
-0.00010817844 0.010348726 0.19600001 12617614
0.0008135041 0.010348726 0.19600001 13011342
0.0017351868 0.010348726 0.19600001 12879756
0.0026568694 0.010348726 0.19600001 12877960
0.0035785518 0.010348726 0.19600001 13336969
0.0045002345 0.010348726 0.19600001 14718365
0.005421917 0.010348726 0.19600001 12876163
0.0063435999 0.010348726 0.19600001 13271178
0.0072652819 0.010348726 0.19600001 13139338
0.0081869652 0.010348726 0.19600001 12549254
0.0091086468 0.010348726 0.19600001 12022910
0.010030329 0.010348726 0.19600001 11957117
0.010952013 0.010348726 0.19600001 12286852
0.011873694 0.010348726 0.19600001 13469843
0.012795377 0.010348726 0.19600001 14193048
0.01371706 0.010348726 0.19600001 14126485
0.014638742 0.010348726 0.19600001 12745602
0.015560426 0.010348726 0.19600001 12876936
0.016482107 0.010348726 0.19600001 13008522
0.017403791 0.010348726 0.19600001 12679811
0.018325472 0.010348726 0.19600001 12285053
0.019247156 0.010348726 0.19600001 13141391
0.020168837 0.010348726 0.19600001 13207954
0.021090521 0.010348726 0.19600001 13010575
0.022012204 0.010348726 0.19600001 13340053
0.022933885 0.010348726 0.19600001 13011088
0.023855567 0.010348726 0.19600001 12945295
0.02477725 0.010348726 0.19600001 12748430
0.025698934 0.010348726 0.19600001 12551305
0.026620617 0.010348726 0.19600001 12748170
0.027542299 0.010348726 0.19600001 12024447
0.028463982 0.010348726 0.19600001 12090754
0.029385662 0.010348726 0.19600001 11565180
0.030307345 0.010348726 0.19600001 11170681
0.031229028 0.010348726 0.19600001 11237757
0.032150712 0.010348726 0.19600001 11371144
0.033072393 0.010348726 0.19600001 11831693
0.033994079 0.010348726 0.19600001 11698562
0.03491576 0.010348726 0.19600001 11040632
0.035837442 0.010348726 0.19600001 10909046
0.036759123 0.010348726 0.19600001 10777460
0.037680805 0.010348726 0.19600001 10646388
0.038405538 0.010295927 0.19500001 10515318
0.039322518 0.010295927 0.19500001 10056052
0.040033139 0.010243126 0.19400001 8543326
-0.0056095067 0.011212907 0.19500001 8149850
-0.004716591 0.011270409 0.19600001 9596264
-0.0038142703 0.011327911 0.19700001 9793643
-0.0028878856 0.011327911 0.19700001 10581363
-0.0019615004 0.011327911 0.19700001 10777974
-0.0010351153 0.011327911 0.19700001 11172218
-0.00010873038 0.011327911 0.19700001 11499646
0.0008176546 0.011327911 0.19700001 12617098
0.0017440397 0.011327911 0.19700001 13209233
0.0026704248 0.011327911 0.19700001 12550276
0.0035968097 0.011327911 0.19700001 12878471
0.0045231949 0.011327911 0.19700001 13140360
0.0054495796 0.011327911 0.19700001 13008774
0.0063759652 0.011327911 0.19700001 12548995
0.0073023499 0.011327911 0.19700001 12943753
0.0082287351 0.011327911 0.19700001 12352899
0.0091551198 0.011327911 0.19700001 11892607
0.010081504 0.011327911 0.19700001 11497849
0.01100789 0.011327911 0.19700001 13142928
0.011934275 0.011327911 0.19700001 12748170
0.01286066 0.011327911 0.19700001 12484231
0.013787045 0.011327911 0.19700001 12747655
0.01471343 0.011327911 0.19700001 12681862
0.015639815 0.011327911 0.19700001 12747655
0.0165662 0.011327911 0.19700001 12484483
0.017492585 0.011327911 0.19700001 12878473
0.01841897 0.011327911 0.19700001 12812680
0.019345356 0.011327911 0.19700001 12616584
0.020271739 0.011327911 0.19700001 13209235
0.021198126 0.011327911 0.19700001 12156293
0.02212451 0.011327911 0.19700001 12749200
0.023050897 0.011327911 0.19700001 12880786
0.02397728 0.011327911 0.19700001 12551821
0.024903666 0.011327911 0.19700001 12486028
0.025830051 0.011327911 0.19700001 11960197
0.026756436 0.011327911 0.19700001 12026244
0.027682822 0.011327911 0.19700001 12157317
0.028609207 0.011327911 0.19700001 12157317
0.02953559 0.011327911 0.19700001 11960197
0.030461974 0.011327911 0.19700001 11368060
0.031388361 0.011327911 0.19700001 10974587
0.032314748 0.011327911 0.19700001 10450812
0.03324113 0.011327911 0.19700001 11043722
0.034167517 0.011327911 0.19700001 11436420
0.035093904 0.011327911 0.19700001 10712181
0.036020283 0.011327911 0.19700001 9988458
0.036946669 0.011327911 0.19700001 9791595
0.037873056 0.011327911 0.19700001 9923694
0.038799442 0.011327911 0.19700001 9793393
0.039322518 0.011212907 0.19500001 8280670
-0.0056670406 0.012254296 0.19700001 6769995
-0.0047406554 0.012254296 0.19700001 8478297
-0.0038336322 0.012316501 0.19800001 9925229
-0.0029025448 0.012316501 0.19800001 9990509
-0.0019814142 0.012378705 0.19900002 10910330
-0.0010456241 0.012378705 0.19900002 10976123
-0.00010983424 0.012378705 0.19900002 11369857
0.00082180515 0.012316501 0.19800001 12356238
0.0017617458 0.012378705 0.19900002 12289162
0.0026975358 0.012378705 0.19900002 12749454
0.0036333255 0.012378705 0.19900002 12419205
0.0045691156 0.012378705 0.19900002 12024447
0.0055049057 0.012378705 0.19900002 12418692
0.0064406958 0.012378705 0.19900002 12879243
0.0073764855 0.012378705 0.19900002 12748170
0.0083122756 0.012378705 0.19900002 12879756
0.0092480658 0.012378705 0.19900002 12945549
0.010183855 0.012378705 0.19900002 12682377
0.011119645 0.012378705 0.19900002 12682377
0.012055435 0.012378705 0.19900002 12879756
0.012991224 0.012378705 0.19900002 12879756
0.013927015 0.012378705 0.19900002 12616584
0.014862806 0.012378705 0.19900002 12813963
0.015798597 0.012378705 0.19900002 11102832
0.016734384 0.012378705 0.19900002 11036785
0.017670175 0.012378705 0.19900002 11826555
0.018605966 0.012378705 0.19900002 11432310
0.019541755 0.012378705 0.19900002 12288133
0.020477545 0.012378705 0.19900002 13011856
0.021413336 0.012378705 0.19900002 12223110
0.022349125 0.012378705 0.19900002 11960197
0.023284916 0.012378705 0.19900002 11368830
0.024220705 0.012378705 0.19900002 11697795
0.025156494 0.012378705 0.19900002 10776693
0.026092285 0.012378705 0.19900002 11500929
0.027028076 0.012378705 0.19900002 11632769
0.027963866 0.012378705 0.19900002 11369597
0.028899657 0.012378705 0.19900002 11171964
0.029835444 0.012378705 0.19900002 10974585
0.030616604 0.012316501 0.19800001 11237757
0.031547692 0.012316501 0.19800001 11040894
0.03247878 0.012316501 0.19800001 10450042
0.033409867 0.012316501 0.19800001 10451071
0.034340955 0.012316501 0.19800001 9793393
0.035272043 0.012316501 0.19800001 9463915
0.036203127 0.012316501 0.19800001 9792110
0.037134215 0.012316501 0.19800001 9595501
0.038065303 0.012316501 0.19800001 9332844
0.038799442 0.012254296 0.19700001 7623510
-0.0047647199 0.013247588 0.19800001 7163722
-0.0038336322 0.013247588 0.19800001 8017746
-0.0029318633 0.013381401 0.2 8873055
-0.0019913709 0.013381401 0.2 7820115
-0.0010508785 0.013381401 0.2 9463917
-0.00011038617 0.013381401 0.2 10515835
0.00083010615 0.013381401 0.2 10910078
0.0017705987 0.013381401 0.2 11106685
0.002711091 0.013381401 0.2 11369343
0.0036515833 0.013381401 0.2 11369343
0.0045920755 0.013381401 0.2 11828865
0.0055325679 0.013381401 0.2 12289416
0.0064730607 0.013381401 0.2 12223110
0.0074135526 0.013381401 0.2 12222856
0.0083540455 0.013381401 0.2 12551305
0.0092945378 0.013381401 0.2 12485512
0.010235029 0.013381401 0.2 12090754
0.011175523 0.013381401 0.2 12090754
0.012116014 0.013381401 0.2 11893375
0.013056506 0.013381401 0.2 12551305
0.013996999 0.013381401 0.2 10972789
0.014937492 0.013381401 0.2 11564926
0.015877984 0.013381401 0.2 11695742
0.016818477 0.013381401 0.2 12748430
0.017758969 0.013381401 0.2 11695230
0.018699462 0.013381401 0.2 11300470
0.019639954 0.013381401 0.2 12222340
0.020580446 0.013381401 0.2 12616844
0.021520939 0.013381401 0.2 12091783
0.022461431 0.013381401 0.2 10645109
0.023401923 0.013381401 0.2 10579314
0.024342416 0.013381401 0.2 10842486
0.025282908 0.013381401 0.2 10842999
0.026223401 0.013381401 0.2 10777206
0.027163893 0.013381401 0.2 10711413
0.028104385 0.013381401 0.2 10711413
0.02904488 0.013381401 0.2 9988204
0.029985368 0.013381401 0.2 10317169
0.030771235 0.013314495 0.19900002 9791597
0.031707026 0.013314495 0.19900002 9988976
0.032642815 0.013314495 0.19900002 9463147
0.033578604 0.013314495 0.19900002 9662323
0.034514397 0.013314495 0.19900002 9728886
0.035450187 0.013314495 0.19900002 9728114
0.036385972 0.013314495 0.19900002 8674912
0.037321765 0.013314495 0.19900002 8214877
0.038257554 0.013314495 0.19900002 7754842
0.038996391 0.013247588 0.19800001 7559259
-0.0029465226 0.014393503 0.20100001 8084572
-0.0020013277 0.014393503 0.20100001 7820887
-0.001056133 0.014393503 0.20100001 8674401
-0.0001109381 0.014393503 0.20100001 10121075
0.0008342567 0.014393503 0.20100001 10581624
0.0017794516 0.014393503 0.20100001 10975869
0.0027246466 0.014393503 0.20100001 11040892
0.0036698412 0.014393503 0.20100001 11304064
0.0046150358 0.014393503 0.20100001 11566463
0.005587894 0.014465113 0.20200001 11763842
0.0065377913 0.014465113 0.20200001 11566463
0.0074876887 0.014465113 0.20200001 11961221
0.008437586 0.014465113 0.20200001 11961221
0.0093874829 0.014465113 0.20200001 11763842
0.01033738 0.014465113 0.20200001 11565439
0.011287278 0.014465113 0.20200001 11433853
0.012237174 0.014465113 0.20200001 11302008
0.013187071 0.014465113 0.20200001 11236215
0.014136969 0.014465113 0.20200001 10973556
0.015086867 0.014465113 0.20200001 11631232
0.016036766 0.014465113 0.20200001 12486541
0.016986661 0.014465113 0.20200001 11960197
0.017936559 0.014465113 0.20200001 11762305
0.018886456 0.014465113 0.20200001 12090500
0.019836355 0.014465113 0.20200001 12682637
0.02078625 0.014465113 0.20200001 11039095
0.021736149 0.014465113 0.20200001 11105658
0.022686046 0.014465113 0.20200001 10777206
0.023635944 0.014465113 0.20200001 10777206
0.024585839 0.014465113 0.20200001 11435136
0.025535738 0.014465113 0.20200001 11567490
0.026485635 0.014465113 0.20200001 11370111
0.027435534 0.014465113 0.20200001 11040378
0.028385431 0.014465113 0.20200001 9659239
0.029190104 0.014393503 0.20100001 9790825
0.030135296 0.014393503 0.20100001 9594216
0.030925861 0.014321893 0.2 9594729
0.031866353 0.014321893 0.2 9463913
0.032642815 0.014250285 0.19900002 9596014
0.033578604 0.014250285 0.19900002 9135977
0.034514397 0.014250285 0.19900002 9598329
0.035450187 0.014250285 0.19900002 8085344
0.036385972 0.014250285 0.19900002 8149852
0.037321765 0.014250285 0.19900002 7755607
0.038257554 0.014250285 0.19900002 7494238
-0.0029465226 0.015338698 0.20100001 6572614
-0.0020112847 0.015415011 0.20200001 7755605
-0.0010613874 0.015415011 0.20200001 8280920
-0.00011149003 0.015415011 0.20200001 8674397
0.0008342567 0.015338698 0.20100001 9398120
0.0017883047 0.015415011 0.20200001 11503496
0.002738202 0.015415011 0.20200001 11042175
0.0036880991 0.015415011 0.20200001 11107455
0.0046379967 0.015415011 0.20200001 11633029
0.0056155566 0.015491323 0.20300001 11764615
0.0065701571 0.015491323 0.20300001 11501443
0.0075247562 0.015491323 0.20300001 11106685
0.0084793568 0.015491323 0.20300001 10777720
0.0094339559 0.015491323 0.20300001 10580343
0.010388555 0.015491323 0.20300001 10316657
0.011343156 0.015491323 0.20300001 10711415
0.012297755 0.015491323 0.20300001 10842999
0.013252354 0.015491323 0.20300001 11369343
0.014206954 0.015491323 0.20300001 11105912
0.015161554 0.015491323 0.20300001 11303291
0.016116155 0.015491323 0.20300001 11040119
0.017070753 0.015491323 0.20300001 11303291
0.018025354 0.015491323 0.20300001 11237498
0.018979954 0.015491323 0.20300001 11040119
0.019934554 0.015491323 0.20300001 11040119
0.020889154 0.015491323 0.20300001 11040632
0.021843754 0.015491323 0.20300001 10843253
0.022798354 0.015491323 0.20300001 10777974
0.023752954 0.015491323 0.20300001 11369857
0.024707552 0.015491323 0.20300001 11369857
0.025662152 0.015491323 0.20300001 10909306
0.026616752 0.015491323 0.20300001 10711927
0.027571352 0.015491323 0.20300001 9988204
0.028525952 0.015491323 0.20300001 8474965
0.029335327 0.015415011 0.20200001 8870493
0.030285222 0.015415011 0.20200001 9199458
0.031080492 0.015338698 0.20100001 9003875
0.031866353 0.015262387 0.2 8938082
0.032642815 0.015186075 0.19900002 8741217
0.033578604 0.015186075 0.19900002 8281951
0.034514397 0.015186075 0.19900002 8349547
0.035450187 0.015186075 0.19900002 7231064
0.036385972 0.015186075 0.19900002 8151650
-0.0020112847 0.016364908 0.20200001 6112317
-0.0010666418 0.016445924 0.20300001 7689553
-0.00011204195 0.016445924 0.20300001 8808034
0.00084255781 0.016445924 0.20300001 9069668
0.0017971577 0.016445924 0.20300001 8675164
0.0027517574 0.016445924 0.20300001 9200995
0.0037063572 0.016445924 0.20300001 10977406
0.004660957 0.016445924 0.20300001 10976382
0.0056432197 0.016526937 0.20400001 10910589
0.0066025225 0.016526937 0.20400001 10713210
0.0075618243 0.016526937 0.20400001 10581624
0.0085211266 0.016526937 0.20400001 10252146
0.0094804289 0.016526937 0.20400001 9988974
0.01043973 0.016526937 0.20400001 9988976
0.011399033 0.016526937 0.20400001 10186353
0.012358335 0.016526937 0.20400001 10777720
0.013317637 0.016526937 0.20400001 10580341
0.014276939 0.016526937 0.20400001 10711927
0.015236243 0.016526937 0.20400001 10579827
0.016195545 0.016526937 0.20400001 10514034
0.017154846 0.016526937 0.20400001 10316655
0.01811415 0.016526937 0.20400001 10185583
0.019073451 0.016526937 0.20400001 10448755
0.020032754 0.016526937 0.20400001 10646134
0.020992056 0.016526937 0.20400001 10712181
0.021951359 0.016526937 0.20400001 10712951
0.02291066 0.016526937 0.20400001 10581365
0.023869963 0.016526937 0.20400001 10054767
0.024829265 0.016526937 0.20400001 9528936
0.025788568 0.016526937 0.20400001 9463143
0.026747869 0.016526937 0.20400001 9068385
0.027707173 0.016526937 0.20400001 8871006
0.028666476 0.016526937 0.20400001 8805213
0.029480552 0.016445924 0.20300001 9069155
0.03043515 0.016445924 0.20300001 8411738
0.031080492 0.016283894 0.20100001 8148568
0.031866353 0.01620288 0.2 7885910
0.032642815 0.016121866 0.19900002 7755096
0.033578604 0.016121866 0.19900002 6441032
0.034340955 0.01604085 0.19800001 6113359
-0.0010666418 0.017400522 0.20300001 5588290
-0.00011204195 0.017400522 0.20300001 6703689
0.00084670831 0.017486239 0.20400001 6637124
0.0018060107 0.017486239 0.20400001 9662319
0.002765313 0.017486239 0.20400001 10188663
0.0037246151 0.017486239 0.20400001 9135977
0.0046839174 0.017486239 0.20400001 9662321
0.0056708823 0.017571956 0.20500001 10648700
0.0066348878 0.017571956 0.20500001 10648700
0.0075988919 0.017571956 0.20500001 10846079
0.0085628973 0.017571956 0.20500001 10911872
0.0095269019 0.017571956 0.20500001 10648700
0.010490905 0.017571956 0.20500001 10385017
0.011454911 0.017571956 0.20500001 10056052
0.012418916 0.017571956 0.20500001 9858671
0.01338292 0.017571956 0.20500001 10186866
0.014346925 0.017571956 0.20500001 10121073
0.01531093 0.017571956 0.20500001 10450038
0.016274935 0.017571956 0.20500001 10186866
0.017238939 0.017571956 0.20500001 10055280
0.018202944 0.017571956 0.20500001 10120560
0.019166948 0.017571956 0.20500001 10252659
0.020130955 0.017571956 0.20500001 10515831
0.021094957 0.017571956 0.20500001 9792878
0.022058962 0.017571956 0.20500001 9990257
0.023022968 0.017571956 0.20500001 9989487
0.023986973 0.017571956 0.20500001 9200743
0.024950977 0.017571956 0.20500001 8938084
0.025914982 0.017571956 0.20500001 9135461
0.026878987 0.017571956 0.20500001 8938082
0.027842993 0.017571956 0.20500001 8543324
0.028806997 0.017571956 0.20500001 9135461
0.029625777 0.017486239 0.20400001 8477533
0.03043515 0.017400522 0.20300001 8280668
0.031080492 0.017229088 0.20100001 7426642
0.031866353 0.017143371 0.2 6900298
0.032642815 0.017057655 0.19900002 6769997
0.033409867 0.016971938 0.19800001 6507604
0.034167517 0.016886221 0.19700001 4338231
-0.00011259389 0.018445542 0.20400001 3353905
0.00084670831 0.018445542 0.20400001 4337971
0.0018060107 0.018445542 0.20400001 6573388
0.002765313 0.018445542 0.20400001 6702404
0.0037246151 0.018445542 0.20400001 11438470
0.0046839174 0.018445542 0.20400001 10978433
0.0056708823 0.01853596 0.20500001 9927028
0.0066672531 0.018626381 0.20600002 9926774
0.0076359599 0.018626381 0.20600002 10321532
0.0086046671 0.018626381 0.20600002 10584191
0.0095733739 0.018626381 0.20600002 10255226
0.010542081 0.018626381 0.20600002 10123640
0.011510788 0.018626381 0.20600002 9859698
0.012479495 0.018626381 0.20600002 9793907
0.013448202 0.018626381 0.20600002 9793907
0.01441691 0.018626381 0.20600002 9925493
0.015385618 0.018626381 0.20600002 9859184
0.016354324 0.018626381 0.20600002 9596012
0.017323032 0.018626381 0.20600002 9991024
0.01829174 0.018626381 0.20600002 9858925
0.019260446 0.018626381 0.20600002 9003362
0.020229153 0.018626381 0.20600002 8346461
0.021197861 0.018626381 0.20600002 9202542
0.022166567 0.018626381 0.20600002 8741219
0.023135275 0.018626381 0.20600002 8609117
0.024103982 0.018626381 0.20600002 8345945
0.025072688 0.018626381 0.20600002 8214873
0.026041396 0.018626381 0.20600002 7820115
0.027010104 0.018626381 0.20600002 7622736
0.027978811 0.018626381 0.20600002 7622738
0.028806997 0.01853596 0.20500001 7689301
0.029625777 0.018445542 0.20400001 7163470
0.03043515 0.018355122 0.20300001 7164240
0.031235121 0.018264702 0.20200001 7362904
0.031866353 0.018083863 0.2 5191997
0.032642815 0.017993445 0.19900002 3547170
0.033409867 0.017903026 0.19800001 4798520
0.00084670831 0.019404843 0.20400001 3158066
0.0018060107 0.019404843 0.20400001 3089961
0.002765313 0.019404843 0.20400001 5522243
0.0037246151 0.019404843 0.20400001 9468794
0.0046839174 0.019404843 0.20400001 7232345
