# .PCD v0.7 - Point Cloud Data file format
VERSION 0.7
FIELDS x y z rgb
SIZE 4 4 4 4
TYPE F F F U
COUNT 1 1 1 1
WIDTH 1089
HEIGHT 1
VIEWPOINT 0 0 0 1 0 0 0
POINTS 1089
DATA ascii
-0.0009878258 0.0019697635 0.18800001 14787492
-0.000103763 0.0019697635 0.18800001 15902893
0.00078029983 0.0019697635 0.18800001 14456220
0.0016643627 0.0019697635 0.18800001 16766944
0.0025484257 0.0019697635 0.18800001 16769510
0.0034324883 0.0019697635 0.18800001 16770541
0.0043165511 0.0019697635 0.18800001 12554905
0.0052006142 0.0019697635 0.18800001 12750485
0.0060846773 0.0019697635 0.18800001 13865620
0.0069687399 0.0019697635 0.18800001 14786209
0.007852803 0.0019697635 0.18800001 14719644
0.0087368656 0.0019697635 0.18800001 16100527
0.0096209282 0.0019697635 0.18800001 15639719
0.010504992 0.0019697635 0.18800001 14389654
0.011389053 0.0019697635 0.18800001 14455193
0.012273116 0.0019697635 0.18800001 15310756
0.01315718 0.0019697635 0.18800001 15507363
0.013966555 0.0019592859 0.18700001 15836328
0.014845916 0.0019592859 0.18700001 15902119
0.015725276 0.0019592859 0.18700001 15967914
0.016693432 0.0019697635 0.18800001 14323861
0.017577494 0.0019697635 0.18800001 13468555
0.018461557 0.0019697635 0.18800001 16759235
0.019242717 0.0019592859 0.18700001 15046562
0.020122077 0.0019592859 0.18700001 14454677
0.021001438 0.0019592859 0.18700001 14059917
0.0218808 0.0019592859 0.18700001 13467782
0.022760158 0.0019592859 0.18700001 14915998
0.023639519 0.0019592859 0.18700001 16761287
0.024518881 0.0019592859 0.18700001 15113900
0.025398241 0.0019592859 0.18700001 16503263
0.026277602 0.0019592859 0.18700001 16776955
0.027156962 0.0019592859 0.18700001 16711675
0.028036321 0.0019592859 0.18700001 16774900
0.028915681 0.0019592859 0.18700001 16694467
0.029795041 0.0019592859 0.18700001 15837100
0.030674402 0.0019592859 0.18700001 16165811
0.031553764 0.0019592859 0.18700001 15639726
0.032433122 0.0019592859 0.18700001 14850210
0.033312485 0.0019592859 0.18700001 14916771
0.034191843 0.0019592859 0.18700001 16763086
0.035071205 0.0019592859 0.18700001 16768222
0.035950564 0.0019592859 0.18700001 16768227
0.036829926 0.0019592859 0.18700001 16770280
0.037709285 0.0019592859 0.18700001 14192278
0.038588647 0.0019592859 0.18700001 15770537
0.039468009 0.0019592859 0.18700001 16033709
0.040131606 0.0019488084 0.186 15901610
0.041006263 0.0019488084 0.186 14783640
0.041880921 0.0019488084 0.186 15705512
0.042755578 0.0019488084 0.186 15377574
0.043630235 0.0019488084 0.186 13537425
0.044504896 0.0019488084 0.186 11303804
0.045135576 0.0019383309 0.185 5979714
0.046005532 0.0019383309 0.185 4866372
0.046875488 0.0019383309 0.185 4736841
0.04774544 0.0019383309 0.185 4737100
-0.016016895 0.0028538264 0.18800001 4732989
-0.01513283 0.0028538264 0.18800001 6634046
-0.014248769 0.0028538264 0.18800001 13866390
-0.013364706 0.0028538264 0.18800001 13997206
-0.012480643 0.0028538264 0.18800001 14128025
-0.01159658 0.0028538264 0.18800001 14784158
-0.010712517 0.0028538264 0.18800001 16231088
-0.0098284548 0.0028538264 0.18800001 15571875
-0.0089443922 0.0028538264 0.18800001 15769254
-0.0080603287 0.0028538264 0.18800001 15901610
-0.0071762661 0.0028538264 0.18800001 15048359
-0.006292203 0.0028538264 0.18800001 16771310
-0.0054081399 0.0028538264 0.18800001 16770794
-0.0045240773 0.0028538264 0.18800001 16767714
-0.0036400142 0.0028538264 0.18800001 15771310
-0.0027559516 0.0028538264 0.18800001 14983588
-0.0018718888 0.0028538264 0.18800001 14261661
-0.0009878258 0.0028538264 0.18800001 15905201
-0.000103763 0.0028538264 0.18800001 16034475
0.00078029983 0.0028538264 0.18800001 15441057
0.0016643627 0.0028538264 0.18800001 15638438
0.0025484257 0.0028538264 0.18800001 14456220
0.0034324883 0.0028538264 0.18800001 14130853
0.0043165511 0.0028538264 0.18800001 12816791
0.0052006142 0.0028538264 0.18800001 13341850
0.0060846773 0.0028538264 0.18800001 13801110
0.0069687399 0.0028538264 0.18800001 14128790
0.007852803 0.0028538264 0.18800001 14325656
0.0087368656 0.0028538264 0.18800001 14653081
0.0096209282 0.0028538264 0.18800001 15310754
0.010504992 0.0028538264 0.18800001 14652824
0.011389053 0.0028538264 0.18800001 14586261
0.012273116 0.0028538264 0.18800001 14455445
0.01315718 0.0028538264 0.18800001 14915996
0.014041243 0.0028538264 0.18800001 14915226
0.014925306 0.0028538264 0.18800001 13533571
0.015809368 0.0028538264 0.18800001 13665161
0.016693432 0.0028538264 0.18800001 13599368
0.017577494 0.0028538264 0.18800001 13073794
0.018461557 0.0028538264 0.18800001 14258068
0.019242717 0.0028386463 0.18700001 14521238
0.020122077 0.0028386463 0.18700001 14783638
0.021001438 0.0028386463 0.18700001 14323857
0.0218808 0.0028386463 0.18700001 14652822
0.022760158 0.0028386463 0.18700001 14323087
0.023639519 0.0028386463 0.18700001 14059152
0.024518881 0.0028386463 0.18700001 16558266
0.025398241 0.0028386463 0.18700001 15246517
0.026277602 0.0028386463 0.18700001 15647437
0.027156962 0.0028386463 0.18700001 16242654
0.028036321 0.0028386463 0.18700001 16766179
0.028915681 0.0028386463 0.18700001 15377072
0.029795041 0.0028386463 0.18700001 14783390
0.030674402 0.0028386463 0.18700001 15507111
0.031553764 0.0028386463 0.18700001 16100018
0.032433122 0.0028386463 0.18700001 14849951
0.033312485 0.0028386463 0.18700001 15310759
0.034191843 0.0028386463 0.18700001 16368328
0.035071205 0.0028386463 0.18700001 16771308
0.035950564 0.0028386463 0.18700001 16769769
0.036829926 0.0028386463 0.18700001 16770800
0.037709285 0.0028386463 0.18700001 13537173
0.038588647 0.0028386463 0.18700001 14587290
0.039468009 0.0028386463 0.18700001 15639721
0.040131606 0.0028234664 0.186 14850205
0.041006263 0.0028234664 0.186 14126737
0.041880921 0.0028234664 0.186 12615038
0.042755578 0.0028234664 0.186 13011594
0.043630235 0.0028234664 0.186 12424082
0.044504896 0.0028234664 0.186 5324096
0.045135576 0.0028082863 0.185 4868427
0.046005532 0.0028082863 0.185 4540489
0.046875488 0.0028082863 0.185 4408905
0.04774544 0.0028082863 0.185 4408905
-0.01610209 0.0037577716 0.18900001 9272446
-0.015213325 0.0037577716 0.18900001 11637392
-0.014324561 0.0037577716 0.18900001 12029324
-0.013435795 0.0037577716 0.18900001 11960449
-0.012547029 0.0037577716 0.18900001 12812678
-0.011658264 0.0037577716 0.18900001 13994899
-0.010769499 0.0037577716 0.18900001 16559538
-0.0098284548 0.0037378892 0.18800001 16624561
-0.0089443922 0.0037378892 0.18800001 15111322
-0.0080603287 0.0037378892 0.18800001 15637666
-0.0071762661 0.0037378892 0.18800001 16493747
-0.006292203 0.0037378892 0.18800001 16363190
-0.0054081399 0.0037378892 0.18800001 15376295
-0.0045240773 0.0037378892 0.18800001 15770024
-0.0036400142 0.0037378892 0.18800001 16098215
-0.0027559516 0.0037378892 0.18800001 15574183
-0.0018718888 0.0037378892 0.18800001 14129562
-0.0009878258 0.0037378892 0.18800001 15116457
-0.000103763 0.0037378892 0.18800001 14850203
0.00078029983 0.0037378892 0.18800001 14520470
0.0016643627 0.0037378892 0.18800001 14651543
0.0025484257 0.0037378892 0.18800001 14257814
0.0034324883 0.0037378892 0.18800001 14523296
0.0043165511 0.0037378892 0.18800001 11433855
0.0052006142 0.0037378892 0.18800001 12420750
0.0060846773 0.0037378892 0.18800001 12881040
0.0069687399 0.0037378892 0.18800001 13537171
0.007852803 0.0037378892 0.18800001 14128025
0.0087368656 0.0037378892 0.18800001 14061716
0.0096209282 0.0037378892 0.18800001 14653081
0.010504992 0.0037378892 0.18800001 14784665
0.011389053 0.0037378892 0.18800001 14784408
0.012273116 0.0037378892 0.18800001 14521236
0.01315718 0.0037378892 0.18800001 14323859
0.014041243 0.0037378892 0.18800001 14323091
0.014925306 0.0037378892 0.18800001 13533573
0.015809368 0.0037378892 0.18800001 13468552
0.016693432 0.0037378892 0.18800001 13468809
0.017577494 0.0037378892 0.18800001 12876672
0.018461557 0.0037378892 0.18800001 13732497
0.019345619 0.0037378892 0.18800001 13403786
0.020229682 0.0037378892 0.18800001 13601681
0.021113746 0.0037378892 0.18800001 13798542
0.021997809 0.0037378892 0.18800001 14653079
0.022881871 0.0037378892 0.18800001 14784408
0.023639519 0.0037180067 0.18700001 14981019
0.024518881 0.0037180067 0.18700001 14586009
0.025398241 0.0037180067 0.18700001 16764121
0.026277602 0.0037180067 0.18700001 16769515
0.027156962 0.0037180067 0.18700001 16762332
0.028036321 0.0037180067 0.18700001 16760014
0.028915681 0.0037180067 0.18700001 16560317
0.029795041 0.0037180067 0.18700001 14521240
0.030674402 0.0037180067 0.18700001 16692409
0.031553764 0.0037180067 0.18700001 16761800
0.032433122 0.0037180067 0.18700001 16760777
0.033312485 0.0037180067 0.18700001 15706289
0.034191843 0.0037180067 0.18700001 14259872
0.035071205 0.0037180067 0.18700001 13999269
0.035950564 0.0037180067 0.18700001 14460081
0.036829926 0.0037180067 0.18700001 14985144
0.037709285 0.0037180067 0.18700001 12154496
0.038588647 0.0037180067 0.18700001 13272716
0.039468009 0.0037180067 0.18700001 13075591
0.040131606 0.0036981243 0.186 12418174
0.041006263 0.0036981243 0.186 12484735
0.041880921 0.0036981243 0.186 12618120
0.042755578 0.0036981243 0.186 11568006
-0.015293819 0.0046711219 0.19000001 4077626
-0.014400352 0.0046711219 0.19000001 4468785
-0.013506884 0.0046711219 0.19000001 10517116
-0.012613416 0.0046711219 0.19000001 11499898
-0.011719949 0.0046711219 0.19000001 12023932
-0.010769499 0.0046465369 0.18900001 12944005
-0.0098807337 0.0046465369 0.18900001 13402757
-0.0089919688 0.0046465369 0.18900001 13467778
-0.008103203 0.0046465369 0.18900001 13598851
-0.0072144377 0.0046465369 0.18900001 13664646
-0.0063256719 0.0046465369 0.18900001 13927818
-0.0054369066 0.0046465369 0.18900001 14783642
-0.0045240773 0.0046219518 0.18800001 14849435
-0.0036593762 0.0046465369 0.18900001 15046812
-0.0027706109 0.0046465369 0.18900001 15049379
-0.0018818455 0.0046465369 0.18900001 13208973
-0.0009930802 0.0046465369 0.18900001 13932442
-0.00010431492 0.0046465369 0.18900001 13930648
0.00078445039 0.0046465369 0.18900001 13600911
0.0016732158 0.0046465369 0.18900001 13929360
0.0025619811 0.0046465369 0.18900001 14456474
0.0034507464 0.0046465369 0.18900001 14654623
0.0043395115 0.0046465369 0.18900001 12945549
0.0052282768 0.0046465369 0.18900001 13341591
0.0061170426 0.0046465369 0.18900001 13011856
0.0070058075 0.0046465369 0.18900001 13471380
0.0078945737 0.0046465369 0.18900001 13667987
0.0087833386 0.0046465369 0.18900001 13666704
0.0096721034 0.0046465369 0.18900001 14127509
0.010560869 0.0046465369 0.18900001 14061714
0.011449634 0.0046465369 0.18900001 13798542
0.012273116 0.0046219518 0.18800001 13535370
0.01315718 0.0046219518 0.18800001 13403786
0.014041243 0.0046219518 0.18800001 13206407
0.014925306 0.0046219518 0.18800001 13009028
0.015809368 0.0046219518 0.18800001 13403786
0.016693432 0.0046219518 0.18800001 13404556
0.017577494 0.0046219518 0.18800001 13075591
0.018461557 0.0046219518 0.18800001 13075337
0.019345619 0.0046219518 0.18800001 13470095
0.020229682 0.0046219518 0.18800001 13207436
0.021113746 0.0046219518 0.18800001 13799573
0.021997809 0.0046219518 0.18800001 14062232
0.022881871 0.0046219518 0.18800001 14456474
0.023765935 0.0046219518 0.18800001 14258325
0.024649998 0.0046219518 0.18800001 14389911
0.02553406 0.0046219518 0.18800001 14719392
0.026418123 0.0046219518 0.18800001 14127255
0.027302187 0.0046219518 0.18800001 16166586
0.028186247 0.0046219518 0.18800001 14587038
0.02907031 0.0046219518 0.18800001 15310502
0.029954374 0.0046219518 0.18800001 14455193
0.030838437 0.0046219518 0.18800001 15639467
0.031722501 0.0046219518 0.18800001 13666706
0.032606564 0.0046219518 0.18800001 13140362
0.033490628 0.0046219518 0.18800001 12877960
0.034374688 0.0046219518 0.18800001 12680581
0.035258751 0.0046219518 0.18800001 13010059
0.036142815 0.0046219518 0.18800001 12878473
0.037026878 0.0046219518 0.18800001 12812680
0.037910938 0.0046219518 0.18800001 12483713
0.038795002 0.0046219518 0.18800001 11957623
0.039468009 0.0045973673 0.18700001 12089977
0.040347368 0.0045973673 0.18700001 12354176
0.041006263 0.0045727822 0.186 12355461
0.041880921 0.0045727822 0.186 9594216
-0.015374313 0.0055938768 0.19100001 4342338
-0.014476144 0.0055938768 0.19100001 4144702
-0.013577973 0.0055938768 0.19100001 4272178
-0.012679802 0.0055938768 0.19100001 10386044
-0.011781632 0.0055938768 0.19100001 11632769
-0.010826481 0.0055645895 0.19000001 13342102
-0.0099330125 0.0055645895 0.19000001 12617350
-0.0090395454 0.0055645895 0.19000001 12812932
-0.0081460774 0.0055645895 0.19000001 13731981
-0.0072144377 0.0055353022 0.18900001 13797515
-0.0063591413 0.0055645895 0.19000001 13468807
-0.0054656737 0.0055645895 0.19000001 13337221
-0.0045481413 0.0055353022 0.18900001 14324888
-0.0036787379 0.0055645895 0.19000001 13996693
-0.0027852703 0.0055645895 0.19000001 13735315
-0.0018918024 0.0055645895 0.19000001 12881038
-0.00099833461 0.0055645895 0.19000001 12880786
-0.00010486686 0.0055645895 0.19000001 12485260
0.00078860088 0.0055645895 0.19000001 13207954
0.0016820688 0.0055645895 0.19000001 13339792
0.0025755367 0.0055645895 0.19000001 13931159
0.0034690043 0.0055645895 0.19000001 14128538
0.0043624719 0.0055645895 0.19000001 13471378
0.0052282768 0.0055353022 0.18900001 13208206
0.0061170426 0.0055353022 0.18900001 13076622
0.0070058075 0.0055353022 0.18900001 13800345
0.0078945737 0.0055353022 0.18900001 13734550
0.0087833386 0.0055353022 0.18900001 13996439
0.0096721034 0.0055353022 0.18900001 13667474
0.010560869 0.0055353022 0.18900001 13535888
0.011449634 0.0055353022 0.18900001 13602194
0.012338399 0.0055353022 0.18900001 14128538
0.013227165 0.0055353022 0.18900001 12748168
0.014115931 0.0055353022 0.18900001 12681862
0.015004696 0.0055353022 0.18900001 13010057
0.015893461 0.0055353022 0.18900001 13405069
0.016782226 0.0055353022 0.18900001 12550278
0.017670993 0.0055353022 0.18900001 13405585
0.018559758 0.0055353022 0.18900001 13667987
0.019448522 0.0055353022 0.18900001 13536401
0.020337287 0.0055353022 0.18900001 13076620
0.021226054 0.0055353022 0.18900001 13076620
0.022114819 0.0055353022 0.18900001 13208208
0.023003584 0.0055353022 0.18900001 13339792
0.023892349 0.0055353022 0.18900001 13470608
0.024781115 0.0055353022 0.18900001 13272716
0.02566988 0.0055353022 0.18900001 12681094
0.026558645 0.0055353022 0.18900001 12418692
0.027447412 0.0055353022 0.18900001 12484485
0.028336175 0.0055353022 0.18900001 13009544
0.02922494 0.0055353022 0.18900001 13601165
0.030113706 0.0055353022 0.18900001 13731981
0.031002471 0.0055353022 0.18900001 12416637
0.031891238 0.0055353022 0.18900001 12877188
0.032780003 0.0055353022 0.18900001 12877960
0.033668768 0.0055353022 0.18900001 12746374
0.034557533 0.0055353022 0.18900001 12549506
0.035446297 0.0055353022 0.18900001 12615299
0.036335062 0.0055353022 0.18900001 13075850
0.037223827 0.0055353022 0.18900001 12945034
0.037910938 0.0055060149 0.18800001 12879241
0.038795002 0.0055060149 0.18800001 12023932
0.039468009 0.0054767276 0.18700001 12288131
0.040347368 0.0054767276 0.18700001 11565432
0.041006263 0.0054474403 0.186 10186607
-0.015454805 0.0065260362 0.192 4408903
-0.014551934 0.0065260362 0.192 4408901
-0.01364906 0.0065260362 0.192 4605255
-0.012746188 0.0065260362 0.192 5258820
-0.011843315 0.0065260362 0.192 9134948
-0.010883463 0.0064920471 0.19100001 10909044
-0.0099852914 0.0064920471 0.19100001 11434359
-0.009087122 0.0064920471 0.19100001 11630455
-0.0081889508 0.0064920471 0.19100001 12681092
-0.0072526094 0.0064580571 0.19000001 13536140
-0.0063926107 0.0064920471 0.19100001 13732749
-0.0054944404 0.0064920471 0.19100001 13666186
-0.0045722057 0.0064580571 0.19000001 13075589
-0.0036980996 0.0064920471 0.19100001 12945288
-0.0027999296 0.0064920471 0.19100001 13208973
-0.0019017593 0.0064920471 0.19100001 11830148
-0.001003589 0.0064920471 0.19100001 12553358
-0.00010541879 0.0064920471 0.19100001 13078419
0.00079275144 0.0064920471 0.19100001 13142926
0.0016909218 0.0064920471 0.19100001 12945034
0.0025890921 0.0064920471 0.19100001 13668757
0.0034872622 0.0064920471 0.19100001 13405585
0.0043854327 0.0064920471 0.19100001 12945036
0.0052559399 0.0064580571 0.19000001 13142928
0.0061494079 0.0064580571 0.19000001 13471893
0.0070428755 0.0064580571 0.19000001 13471893
0.0079363436 0.0064580571 0.19000001 13537171
0.0088298116 0.0064580571 0.19000001 13866136
0.0097232787 0.0064580571 0.19000001 13931929
0.010616747 0.0064580571 0.19000001 13865366
0.011510214 0.0064580571 0.19000001 12419205
0.012403682 0.0064580571 0.19000001 12617098
0.01329715 0.0064580571 0.19000001 12487824
0.014190618 0.0064580571 0.19000001 12750483
0.015084086 0.0064580571 0.19000001 13011856
0.015977552 0.0064580571 0.19000001 12353926
0.016871022 0.0064580571 0.19000001 12682377
0.01776449 0.0064580571 0.19000001 13471891
0.018657958 0.0064580571 0.19000001 13406352
0.019551424 0.0064580571 0.19000001 13142926
0.020444892 0.0064580571 0.19000001 13340819
0.02133836 0.0064580571 0.19000001 13669786
0.022231828 0.0064580571 0.19000001 12616584
0.023125295 0.0064580571 0.19000001 12813450
0.024018764 0.0064580571 0.19000001 13667987
0.024912233 0.0064580571 0.19000001 13405069
0.025805701 0.0064580571 0.19000001 12682116
0.026699169 0.0064580571 0.19000001 12550276
0.027592637 0.0064580571 0.19000001 12221311
0.028486101 0.0064580571 0.19000001 12418944
0.029379569 0.0064580571 0.19000001 12549760
0.030273039 0.0064580571 0.19000001 12220282
0.031166507 0.0064580571 0.19000001 12220282
0.032059975 0.0064580571 0.19000001 12417407
0.032953441 0.0064580571 0.19000001 12877958
0.033846911 0.0064580571 0.19000001 12812678
0.034740377 0.0064580571 0.19000001 12549506
0.035633843 0.0064580571 0.19000001 12221311
0.036527313 0.0064580571 0.19000001 12024445
0.037223827 0.0064240671 0.18900001 12419203
0.038112596 0.0064240671 0.18900001 12024445
0.039001361 0.0064240671 0.18900001 12353924
0.039468009 0.0063560875 0.18700001 11630973
0.040347368 0.0063560875 0.18700001 10843767
-0.015615793 0.0075062942 0.19400001 4079938
-0.014703517 0.0075062942 0.19400001 4409673
-0.01372015 0.0074676014 0.193 4607052
-0.012812574 0.0074676014 0.193 5196622
-0.011905 0.0074676014 0.193 7625052
-0.010940443 0.0074289092 0.192 9660774
-0.01003757 0.0074289092 0.192 11435388
-0.0091346977 0.0074289092 0.192 11566461
-0.0082318243 0.0074289092 0.192 13011854
-0.007290781 0.0073902179 0.19100001 13602194
-0.0064260792 0.0074289092 0.192 13996693
-0.0055232067 0.0074289092 0.192 14062486
-0.0045962702 0.0073902179 0.19100001 13865620
-0.0037174614 0.0074289092 0.192 14128792
-0.0028145888 0.0074289092 0.192 13932956
-0.0019117161 0.0074289092 0.192 11369857
-0.0010088434 0.0074289092 0.192 11764355
-0.00010597071 0.0074289092 0.192 12881551
0.00079690194 0.0074289092 0.192 12879241
0.0016997746 0.0074289092 0.192 12484483
0.0026026473 0.0074289092 0.192 12813448
0.0035055198 0.0074289092 0.192 12484483
0.0044083926 0.0074289092 0.192 12747657
0.005283603 0.0073902179 0.19100001 13274001
0.0061817733 0.0073902179 0.19100001 13866138
0.0070799435 0.0073902179 0.19100001 13471380
0.0079781143 0.0073902179 0.19100001 13735065
0.0088762837 0.0073902179 0.19100001 13800858
0.0097744539 0.0073902179 0.19100001 13603479
0.010672624 0.0073902179 0.19100001 12813709
0.011570795 0.0073902179 0.19100001 11432570
0.012468965 0.0073902179 0.19100001 11499648
0.013367135 0.0073902179 0.19100001 11963027
0.014265305 0.0073902179 0.19100001 12356502
0.015163477 0.0073902179 0.19100001 12816276
0.016061645 0.0073902179 0.19100001 12682637
0.016959816 0.0073902179 0.19100001 11695742
0.017857987 0.0073902179 0.19100001 12090754
0.018756157 0.0073902179 0.19100001 13275026
0.019654326 0.0073902179 0.19100001 13011854
0.020552497 0.0073902179 0.19100001 12223110
0.021450669 0.0073902179 0.19100001 12683661
0.022348838 0.0073902179 0.19100001 12485258
0.023247007 0.0073902179 0.19100001 12090500
0.024145178 0.0073902179 0.19100001 13404817
0.02504335 0.0073902179 0.19100001 13536401
0.025941519 0.0073902179 0.19100001 12945034
0.02683969 0.0073902179 0.19100001 12747655
0.027737861 0.0073902179 0.19100001 12813702
0.028636029 0.0073902179 0.19100001 12879495
0.0295342 0.0073902179 0.19100001 12549760
0.03043237 0.0073902179 0.19100001 12088955
0.031330541 0.0073902179 0.19100001 12023162
0.032228712 0.0073902179 0.19100001 12221311
0.033126883 0.0073902179 0.19100001 12813450
0.034025054 0.0073902179 0.19100001 12682377
0.034923222 0.0073902179 0.19100001 11827582
0.035821389 0.0073902179 0.19100001 11038836
0.036719561 0.0073902179 0.19100001 11434107
0.037420779 0.0073515251 0.19000001 11434107
0.038314249 0.0073515251 0.19000001 12092037
0.039001361 0.0073128329 0.18900001 11829635
0.039679065 0.0072741406 0.18800001 11106685
-0.015696287 0.0084619662 0.19500001 3685182
-0.014779308 0.0084619662 0.19500001 4278089
-0.013791239 0.0084185712 0.19400001 4409675
-0.012878961 0.0084185712 0.19400001 4278089
-0.011966684 0.0084185712 0.19400001 5392720
-0.010997425 0.0083751762 0.193 8610918
-0.010089849 0.0083751762 0.193 10845050
-0.0091822743 0.0083751762 0.193 11501695
-0.0082746986 0.0083751762 0.193 11369082
-0.0073289522 0.0083317813 0.192 12617866
-0.0064595486 0.0083751762 0.193 12418690
-0.0055519734 0.0083751762 0.193 13470608
-0.0046203341 0.0083317813 0.192 13931159
-0.0037368231 0.0083751762 0.193 13734550
-0.0028292481 0.0083751762 0.193 13603477
-0.001921673 0.0083751762 0.193 12486280
-0.0010140978 0.0083751762 0.193 11762559
-0.00010652265 0.0083751762 0.193 11827582
0.00080105243 0.0083751762 0.193 11827066
0.0017086277 0.0083751762 0.193 12287104
0.0026162029 0.0083751762 0.193 12418690
0.0035237779 0.0083751762 0.193 12747655
0.004431353 0.0083751762 0.193 12550278
0.0053112651 0.0083317813 0.192 13274001
0.0062141381 0.0083317813 0.192 13274001
0.0071170107 0.0083317813 0.192 13405587
0.0080198841 0.0083317813 0.192 13603479
0.0089227557 0.0083317813 0.192 13800858
0.0098256283 0.0083317813 0.192 12616584
0.010728502 0.0083317813 0.192 12353672
0.011631373 0.0083317813 0.192 11301754
0.012534246 0.0083317813 0.192 11433853
0.013437119 0.0083317813 0.192 12357274
0.014339992 0.0083317813 0.192 11897234
0.015242865 0.0083317813 0.192 13341850
0.016145736 0.0083317813 0.192 11959684
0.01704861 0.0083317813 0.192 11629949
0.017951483 0.0083317813 0.192 12025477
0.018854355 0.0083317813 0.192 12091524
0.019757228 0.0083317813 0.192 11893375
0.020660101 0.0083317813 0.192 11565180
0.021562973 0.0083317813 0.192 12025477
0.022465847 0.0083317813 0.192 12025479
0.023368718 0.0083317813 0.192 11762305
0.024271591 0.0083317813 0.192 12485258
0.025174465 0.0083317813 0.192 12682377
0.026077338 0.0083317813 0.192 12550278
0.02698021 0.0083317813 0.192 12879754
0.027883084 0.0083317813 0.192 12748422
0.028785953 0.0083317813 0.192 12880008
0.029688828 0.0083317813 0.192 12353410
0.0305917 0.0083317813 0.192 12419203
0.031494573 0.0083317813 0.192 11695480
0.032397445 0.0083317813 0.192 11761273
0.033300318 0.0083317813 0.192 11301238
0.03420319 0.0083317813 0.192 12420489
0.035106063 0.0083317813 0.192 12092037
0.036008935 0.0083317813 0.192 11368314
0.036911808 0.0083317813 0.192 10973556
0.037617732 0.0082883872 0.19100001 11237498
0.038515903 0.0082883872 0.19100001 11501183
0.039001361 0.0082015982 0.18900001 9067102
-0.015158265 0.0096194325 0.2 4212042
-0.014004506 0.0094751408 0.19700001 4409421
-0.012945347 0.0093789464 0.19500001 4409421
-0.012090052 0.0094270436 0.19600001 5000272
-0.011111388 0.0093789464 0.19500001 5719371
-0.010089849 0.0092827519 0.193 9267561
-0.009229851 0.0093308492 0.19400001 10778744
-0.008317573 0.0093308492 0.19400001 11238009
-0.0073671238 0.0092827519 0.193 11237496
-0.006493018 0.0093308492 0.19400001 12025729
-0.0055519734 0.0092827519 0.193 12024959
-0.0046443981 0.0092827519 0.193 13142928
-0.0037561848 0.0093308492 0.19400001 13142928
-0.0028439073 0.0093308492 0.19400001 13142928
-0.0019316298 0.0093308492 0.19400001 12748170
-0.0010193522 0.0093308492 0.19400001 12419205
-0.00010707458 0.0093308492 0.19400001 12156031
0.00080520299 0.0093308492 0.19400001 11958652
0.0017174807 0.0093308492 0.19400001 11826555
0.0026297583 0.0093308492 0.19400001 13996952
0.0035420358 0.0093308492 0.19400001 13668757
0.0044543133 0.0093308492 0.19400001 13734550
0.0053389282 0.0092827519 0.193 13866136
0.0062465039 0.0092827519 0.193 14129310
0.0071540787 0.0092827519 0.193 13076622
0.0080616539 0.0092827519 0.193 12945036
0.0089692287 0.0092827519 0.193 12813450
0.0098768035 0.0092827519 0.193 12813450
0.010784379 0.0092827519 0.193 12156033
0.011691954 0.0092827519 0.193 11827068
0.012599529 0.0092827519 0.193 11893891
0.013507104 0.0092827519 0.193 11566986
0.01441468 0.0092827519 0.193 11436170
0.015322255 0.0092827519 0.193 12553104
0.016229829 0.0092827519 0.193 12222856
0.017137405 0.0092827519 0.193 11630719
0.01804498 0.0092827519 0.193 11761535
0.018952556 0.0092827519 0.193 11695742
0.01986013 0.0092827519 0.193 11695742
0.020767706 0.0092827519 0.193 11761535
0.021675281 0.0092827519 0.193 11630719
0.022582857 0.0092827519 0.193 11499135
0.023490431 0.0092827519 0.193 12157063
0.024398006 0.0092827519 0.193 12157063
0.025305582 0.0092827519 0.193 12157063
0.026213158 0.0092827519 0.193 12617868
0.027120734 0.0092827519 0.193 12683661
0.028028307 0.0092827519 0.193 12881040
0.028935881 0.0092827519 0.193 12551305
0.029843457 0.0092827519 0.193 12156547
0.030751033 0.0092827519 0.193 11432570
0.031658608 0.0092827519 0.193 11630719
0.032566182 0.0092827519 0.193 11499387
0.03347376 0.0092827519 0.193 11959938
0.034381334 0.0092827519 0.193 11434107
0.035288908 0.0092827519 0.193 11434107
0.036196481 0.0092827519 0.193 11565693
0.037104059 0.0092827519 0.193 10908533
0.03781468 0.0092346547 0.192 10448495
0.038717553 0.0092346547 0.192 9396839
0.039207716 0.0091384612 0.19000001 9265766
-0.014217772 0.010559924 0.2 4212296
-0.013277279 0.010559924 0.2 4409675
-0.012090052 0.010348726 0.19600001 4607054
-0.011168369 0.010348726 0.19600001 5000013
-0.009229851 0.010243126 0.19400001 8872291
-0.0084033217 0.010348726 0.19600001 10712181
-0.0074434676 0.010295927 0.19500001 11961221
-0.0065264869 0.010295927 0.19500001 12092035
-0.00558074 0.010243126 0.19400001 12289414
-0.0046684626 0.010243126 0.19400001 12486280
-0.0037755468 0.010295927 0.19500001 12157315
-0.0028585668 0.010295927 0.19500001 12090752
-0.0019415867 0.010295927 0.19500001 12353924
-0.0010246066 0.010295927 0.19500001 12551303
-0.00010762651 0.010295927 0.19500001 13208719
0.00080935354 0.010295927 0.19500001 12089727
0.0017263338 0.010295927 0.19500001 13010829
0.0026433137 0.010295927 0.19500001 13274001
0.0035602937 0.010295927 0.19500001 13734552
0.0044772737 0.010295927 0.19500001 13603477
0.0053665913 0.010243126 0.19400001 13472405
0.0062788692 0.010243126 0.19400001 12814477
0.0071911463 0.010243126 0.19400001 12880270
0.0081034247 0.010243126 0.19400001 12617098
0.0090157017 0.010243126 0.19400001 12617098
0.0099279787 0.010243126 0.19400001 12682377
0.010840257 0.010243126 0.19400001 12484998
0.011752534 0.010243126 0.19400001 11958652
0.012664812 0.010243126 0.19400001 12024447
0.01357709 0.010243126 0.19400001 11435138
0.014489368 0.010243126 0.19400001 11041412
0.015401646 0.010243126 0.19400001 11105660
0.016313922 0.010243126 0.19400001 11959684
0.017226201 0.010243126 0.19400001 11696766
0.018138478 0.010243126 0.19400001 11761789
0.019050756 0.010243126 0.19400001 11432824
0.019963032 0.010243126 0.19400001 11827582
0.020875311 0.010243126 0.19400001 12486028
0.021787588 0.010243126 0.19400001 12420748
0.022699866 0.010243126 0.19400001 12091783
0.023612143 0.010243126 0.19400001 12026760
0.02452442 0.010243126 0.19400001 11895174
0.025436699 0.010243126 0.19400001 11828611
0.026348976 0.010243126 0.19400001 12157830
0.027261255 0.010243126 0.19400001 12486795
0.028173532 0.010243126 0.19400001 12683661
0.029085808 0.010243126 0.19400001 12617868
0.029998086 0.010243126 0.19400001 11564410
0.030910363 0.010243126 0.19400001 11038836
0.03182264 0.010243126 0.19400001 11630973
0.032734919 0.010243126 0.19400001 11433594
0.033647198 0.010243126 0.19400001 11236215
0.034559477 0.010243126 0.19400001 11499898
0.035471752 0.010243126 0.19400001 11434105
0.036384027 0.010243126 0.19400001 11500668
0.037296306 0.010243126 0.19400001 10382702
0.038011633 0.010190327 0.193 9791849
0.03891921 0.010190327 0.193 9528936
-0.01221342 0.011385413 0.19800001 4606284
-0.011168369 0.011270409 0.19600001 4935247
-0.010298965 0.011327911 0.19700001 5392716
-0.0093725808 0.011327911 0.19700001 6835023
-0.0084461952 0.011327911 0.19700001 9530219
-0.0074816393 0.011270409 0.19600001 10317423
-0.0065599564 0.011270409 0.19600001 10843251
-0.0056382739 0.011270409 0.19600001 11632767
-0.004692527 0.011212907 0.19500001 12027012
-0.0037949085 0.011270409 0.19600001 12025729
-0.0028732261 0.011270409 0.19600001 12486280
-0.0019515436 0.011270409 0.19600001 12420487
-0.0010298609 0.011270409 0.19600001 12814475
-0.00010817844 0.011270409 0.19600001 11892859
0.0008135041 0.011270409 0.19600001 12287104
0.0017351868 0.011270409 0.19600001 12681862
0.0026568694 0.011270409 0.19600001 12879243
0.0035785518 0.011270409 0.19600001 13471893
0.0045002345 0.011270409 0.19600001 13012626
0.0053942539 0.011212907 0.19500001 12881040
0.0063112346 0.011212907 0.19500001 12749452
0.0072282143 0.011212907 0.19500001 12420487
0.0081451945 0.011212907 0.19500001 12157315
0.0090621747 0.011212907 0.19500001 11762557
0.009979154 0.011212907 0.19500001 11695996
0.010896134 0.011212907 0.19500001 12484998
0.011813114 0.011212907 0.19500001 13142926
0.012730094 0.011212907 0.19500001 12222338
0.013647075 0.011212907 0.19500001 11632515
0.014564055 0.011212907 0.19500001 12225686
0.015481035 0.011212907 0.19500001 10776695
0.016398015 0.011212907 0.19500001 11499900
0.017314995 0.011212907 0.19500001 12092037
0.018231975 0.011212907 0.19500001 12617868
0.019148955 0.011212907 0.19500001 11762559
0.020065935 0.011212907 0.19500001 11960197
0.020982916 0.011212907 0.19500001 12683920
0.021899896 0.011212907 0.19500001 12618381
0.022816876 0.011212907 0.19500001 12486795
0.023733856 0.011212907 0.19500001 12092037
0.024650836 0.011212907 0.19500001 11697279
0.025567817 0.011212907 0.19500001 11368060
0.026484797 0.011212907 0.19500001 11697025
0.027401777 0.011212907 0.19500001 12289162
0.028318757 0.011212907 0.19500001 12157830
0.029235736 0.011212907 0.19500001 11894145
0.030152716 0.011212907 0.19500001 11894145
0.031069696 0.011212907 0.19500001 12092037
0.031986676 0.011212907 0.19500001 11960451
0.032903656 0.011212907 0.19500001 11565693
0.033820637 0.011212907 0.19500001 12092035
0.034737617 0.011212907 0.19500001 11895426
0.035654597 0.011212907 0.19500001 11172218
0.036571577 0.011212907 0.19500001 10382962
0.037488557 0.011212907 0.19500001 9660009
0.038405538 0.011212907 0.19500001 9068385
0.039120864 0.011155404 0.19400001 8674910
-0.011282332 0.012316501 0.19800001 4803661
-0.010351244 0.012316501 0.19800001 4934475
-0.0094201574 0.012316501 0.19800001 5654344
-0.0084461952 0.012254296 0.19700001 7360336
-0.0075198109 0.012254296 0.19700001 10450808
-0.0065934253 0.012254296 0.19700001 10252400
-0.0056670406 0.012254296 0.19700001 11567490
-0.0047406554 0.012254296 0.19700001 11041146
-0.0038142703 0.012254296 0.19700001 11303804
-0.0028878856 0.012254296 0.19700001 11894658
-0.0019615004 0.012254296 0.19700001 12486795
-0.0010351153 0.012254296 0.19700001 12157830
-0.00010873038 0.012254296 0.19700001 12223108
0.0008176546 0.012254296 0.19700001 12814729
0.0017440397 0.012254296 0.19700001 12945801
0.0026704248 0.012254296 0.19700001 12748422
0.0035968097 0.012254296 0.19700001 12682375
0.0045231949 0.012254296 0.19700001 11827580
0.005421917 0.012192091 0.19600001 12288131
0.0063435999 0.012192091 0.19600001 11894143
0.0072652819 0.012192091 0.19600001 11894143
0.0081869652 0.012192091 0.19600001 11762559
0.0091086468 0.012192091 0.19600001 11302008
0.010030329 0.012192091 0.19600001 11695996
0.010952013 0.012192091 0.19600001 11892861
0.011873694 0.012192091 0.19600001 11761789
0.012795377 0.012192091 0.19600001 12617098
0.01371706 0.012192091 0.19600001 11961480
0.014638742 0.012192091 0.19600001 12489371
0.015560426 0.012192091 0.19600001 11435138
0.016482107 0.012192091 0.19600001 11237498
0.017403791 0.012192091 0.19600001 11829635
0.018325472 0.012192091 0.19600001 12421002
0.019247156 0.012192091 0.19600001 12421002
0.020168837 0.012192091 0.19600001 12421002
0.021090521 0.012192091 0.19600001 12157830
0.022012204 0.012192091 0.19600001 11631486
0.022933885 0.012192091 0.19600001 11499900
0.023855567 0.012192091 0.19600001 11565180
0.02477725 0.012192091 0.19600001 11762559
0.025698934 0.012192091 0.19600001 11697279
0.026620617 0.012192091 0.19600001 11894658
0.027542299 0.012192091 0.19600001 11763842
0.028463982 0.012192091 0.19600001 11566463
0.029385662 0.012192091 0.19600001 11566463
0.030307345 0.012192091 0.19600001 11894658
0.031229028 0.012192091 0.19600001 11698049
0.032314748 0.012254296 0.19700001 11698049
0.03324113 0.012254296 0.19700001 11566463
0.034167517 0.012254296 0.19700001 10777460
0.035093904 0.012254296 0.19700001 10119530
0.036020283 0.012254296 0.19700001 9922665
0.036946669 0.012254296 0.19700001 9790825
0.037680805 0.012192091 0.19600001 9331044
0.03860249 0.012192091 0.19600001 9265764
0.039120864 0.012067682 0.19400001 8938596
-0.010403524 0.013314495 0.19900002 4408133
-0.009467734 0.013314495 0.19900002 4801349
-0.0085319439 0.013314495 0.19900002 6836560
-0.0075198109 0.013180681 0.19700001 7820887
-0.0066268947 0.013247588 0.19800001 9464940
-0.0056958073 0.013247588 0.19800001 9595753
-0.0047647199 0.013247588 0.19800001 10187120
-0.0038529939 0.013314495 0.19900002 10252913
-0.0029172043 0.013314495 0.19900002 10185583
-0.0019714574 0.013247588 0.19800001 11764355
-0.0010403697 0.013247588 0.19800001 11961221
-0.00010928231 0.013247588 0.19800001 11434877
0.00082180515 0.013247588 0.19800001 11630455
0.0017528927 0.013247588 0.19800001 13274766
0.0026839804 0.013247588 0.19800001 12221824
0.0036150676 0.013247588 0.19800001 11958654
0.0045461552 0.013247588 0.19800001 12090754
0.0054772426 0.013247588 0.19800001 12090754
0.0063759652 0.013180681 0.19700001 11631232
0.0073023499 0.013180681 0.19700001 10776693
0.0082287351 0.013180681 0.19700001 10974072
0.0091551198 0.013180681 0.19700001 11499900
0.010081504 0.013180681 0.19700001 12157317
0.01100789 0.013180681 0.19700001 12156547
0.011934275 0.013180681 0.19700001 11893375
0.01286066 0.013180681 0.19700001 11499387
0.013787045 0.013180681 0.19700001 11500931
0.01471343 0.013180681 0.19700001 12225940
0.015639815 0.013180681 0.19700001 10843001
0.0165662 0.013180681 0.19700001 11895941
0.017492585 0.013180681 0.19700001 11566463
0.01841897 0.013180681 0.19700001 11105912
0.019345356 0.013180681 0.19700001 11697795
0.020271739 0.013180681 0.19700001 12158346
0.021198126 0.013180681 0.19700001 11960197
0.02212451 0.013180681 0.19700001 11959938
0.023050897 0.013180681 0.19700001 11894658
0.02397728 0.013180681 0.19700001 12026242
0.024903666 0.013180681 0.19700001 11697277
0.025830051 0.013180681 0.19700001 11499898
0.026756436 0.013180681 0.19700001 11303289
0.027682822 0.013180681 0.19700001 11172218
0.028609207 0.013180681 0.19700001 11370111
0.02953559 0.013180681 0.19700001 11764869
0.030616604 0.013247588 0.19800001 11698562
0.031547692 0.013247588 0.19800001 11238011
0.03247878 0.013247588 0.19800001 10646388
0.033409867 0.013247588 0.19800001 10449009
0.034340955 0.013247588 0.19800001 10317423
0.035272043 0.013247588 0.19800001 10383216
0.036203127 0.013247588 0.19800001 9791849
0.037134215 0.013247588 0.19800001 9857642
0.037873056 0.013180681 0.19700001 9397091
0.03860249 0.013113773 0.19600001 8740192
-0.0095153106 0.014321893 0.2 3815739
-0.0085748173 0.014321893 0.2 5456965
-0.0066603641 0.014250285 0.19900002 8675426
-0.005724574 0.014250285 0.19900002 9267563
-0.0047647199 0.014178676 0.19800001 9661292
-0.0038723554 0.014321893 0.2 10516855
-0.0029318633 0.014321893 0.2 10713464
-0.0019913709 0.014321893 0.2 11172732
-0.0010508785 0.014321893 0.2 12158600
-0.00011038617 0.014321893 0.2 11829635
0.00083010615 0.014321893 0.2 11565691
0.0017705987 0.014321893 0.2 11696764
0.0026975358 0.014250285 0.19900002 11630973
0.0036333255 0.014250285 0.19900002 11630973
0.0045691156 0.014250285 0.19900002 11697279
0.0055049057 0.014250285 0.19900002 11499900
0.0064406958 0.014250285 0.19900002 11039865
0.0073764855 0.014250285 0.19900002 10447728
0.0083122756 0.014250285 0.19900002 11631486
0.0092480658 0.014250285 0.19900002 11828865
0.01013268 0.014178676 0.19800001 11697279
0.011063768 0.014178676 0.19800001 11499900
0.011994855 0.014178676 0.19800001 11302008
0.012925942 0.014178676 0.19800001 11565693
0.01385703 0.014178676 0.19800001 11171964
0.014788118 0.014178676 0.19800001 11568008
0.015719205 0.014178676 0.19800001 10646906
0.016650293 0.014178676 0.19800001 11303291
0.017581381 0.014178676 0.19800001 11698562
0.018512469 0.014178676 0.19800001 11303804
0.019541755 0.014250285 0.19900002 11895176
0.020477545 0.014250285 0.19900002 11764101
0.021413336 0.014250285 0.19900002 11764101
0.022349125 0.014250285 0.19900002 11764355
0.023284916 0.014250285 0.19900002 11501183
0.024220705 0.014250285 0.19900002 11764355
0.025156494 0.014250285 0.19900002 11105912
0.026092285 0.014250285 0.19900002 11105912
0.027028076 0.014250285 0.19900002 11040632
0.027963866 0.014250285 0.19900002 10580595
0.028899657 0.014250285 0.19900002 10251376
0.029835444 0.014250285 0.19900002 10580341
0.030771235 0.014250285 0.19900002 11106685
0.031707026 0.014250285 0.19900002 10778490
0.032806847 0.014321893 0.2 10515318
0.033747341 0.014321893 0.2 10186355
0.034687832 0.014321893 0.2 9791595
0.035628326 0.014321893 0.2 9726315
0.036568817 0.014321893 0.2 9660522
0.037321765 0.014250285 0.19900002 9463145
0.037873056 0.014107066 0.19700001 8477020
-0.0086605661 0.015415011 0.20200001 3024168
-0.0078633558 0.015720259 0.20600002 6705234
-0.0066938326 0.015262387 0.2 7229265
-0.0057533402 0.015262387 0.2 8280670
-0.0047887838 0.015186075 0.19900002 7951703
-0.0039304411 0.015491323 0.20300001 8148566
-0.002961182 0.015415011 0.20200001 9924464
-0.0020112847 0.015415011 0.20200001 10582394
-0.0010613874 0.015415011 0.20200001 10778490
-0.0001109381 0.015338698 0.20100001 10909306
0.0008342567 0.015338698 0.20100001 11370111
0.0017794516 0.015338698 0.20100001 11040632
0.0027246466 0.015338698 0.20100001 11238011
0.0036698412 0.015338698 0.20100001 11698049
0.0046150358 0.015338698 0.20100001 11698049
0.0055602309 0.015338698 0.20100001 11764355
0.006505426 0.015338698 0.20100001 11829894
0.0074506206 0.015338698 0.20100001 11500929
0.0083540455 0.015262387 0.2 11500929
0.0092945378 0.015262387 0.2 11895174
0.010235029 0.015262387 0.2 11895428
0.011175523 0.015262387 0.2 11698049
0.012116014 0.015262387 0.2 11566463
0.013056506 0.015262387 0.2 11303291
0.013927015 0.015186075 0.19900002 11435136
0.014862806 0.015186075 0.19900002 11305351
0.015798597 0.015186075 0.19900002 11042177
0.016818477 0.015262387 0.2 11369597
0.017758969 0.015262387 0.2 11764355
0.018699462 0.015262387 0.2 11434877
0.019639954 0.015262387 0.2 11632515
0.020683348 0.015338698 0.20100001 11173248
0.021628544 0.015338698 0.20100001 11107455
0.022573739 0.015338698 0.20100001 10975869
0.023518933 0.015338698 0.20100001 10910076
0.024464127 0.015338698 0.20100001 11107455
0.025409322 0.015338698 0.20100001 11173248
0.026354518 0.015338698 0.20100001 11040892
0.027299713 0.015338698 0.20100001 11238271
0.028244909 0.015338698 0.20100001 10909560
0.029190104 0.015338698 0.20100001 10383216
0.030135296 0.015338698 0.20100001 10054767
0.031080492 0.015338698 0.20100001 10449525
0.032025687 0.015338698 0.20100001 9791595
0.033134915 0.015415011 0.20200001 9265766
0.034084816 0.015415011 0.20200001 9332329
0.035034712 0.015415011 0.20200001 9398122
0.035984609 0.015415011 0.20200001 9332842
0.036934502 0.015415011 0.20200001 8872291
0.037509307 0.015262387 0.2 7622740
-0.005005362 0.016850995 0.208 7886680
-0.0039691646 0.016607951 0.20500001 8083287
-0.00300516 0.016607951 0.20500001 8675424
-0.0020411552 0.016607951 0.20500001 9990770
-0.0010718962 0.016526937 0.20400001 10582394
-0.00011204195 0.016445924 0.20300001 10582648
0.00084255781 0.016445924 0.20300001 10713210
0.0017971577 0.016445924 0.20300001 10713210
0.002738202 0.016364908 0.20200001 11173248
0.0036880991 0.016364908 0.20200001 11173248
0.0046379967 0.016364908 0.20200001 11370627
0.005587894 0.016364908 0.20200001 11239295
0.0065377913 0.016364908 0.20200001 11501697
0.0074876887 0.016364908 0.20200001 11106685
0.008437586 0.016364908 0.20200001 10843513
0.0093874829 0.016364908 0.20200001 10777720
0.01033738 0.016364908 0.20200001 11237757
0.011287278 0.016364908 0.20200001 10777206
0.012176595 0.016283894 0.20100001 10777206
0.013121789 0.016283894 0.20100001 10514034
0.014066984 0.016283894 0.20100001 10448759
0.01501218 0.016283894 0.20100001 10516353
0.015877984 0.01620288 0.2 9924727
0.016902568 0.016283894 0.20100001 10712699
0.017936559 0.016364908 0.20200001 11633029
0.018886456 0.016364908 0.20200001 11237757
0.019836355 0.016364908 0.20200001 10975869
0.02078625 0.016364908 0.20200001 10055282
0.021843754 0.016445924 0.20300001 10252659
0.022798354 0.016445924 0.20300001 10186866
0.023752954 0.016445924 0.20300001 10384245
0.024707552 0.016445924 0.20300001 10450038
0.025662152 0.016445924 0.20300001 10120560
0.026616752 0.016445924 0.20300001 9660009
0.027571352 0.016445924 0.20300001 9331044
0.028525952 0.016445924 0.20300001 10054767
0.029480552 0.016445924 0.20300001 9594216
0.03043515 0.016445924 0.20300001 9594216
0.031389751 0.016445924 0.20300001 9660522
0.032344349 0.016445924 0.20300001 9529706
0.033462986 0.016526937 0.20400001 9464426
0.03442229 0.016526937 0.20400001 8938598
0.035381589 0.016526937 0.20400001 8543840
0.036340892 0.016526937 0.20400001 8017498
0.037117347 0.016445924 0.20300001 7491922
0.037696853 0.016283894 0.20100001 7493466
-0.0050775548 0.018086256 0.21100001 6638409
-0.0040272498 0.017829105 0.208 7755607
-0.0030491378 0.017829105 0.208 8084057
-0.002061069 0.01774339 0.20700002 8543838
-0.001082405 0.017657673 0.20600002 10056563
-0.00011259389 0.017486239 0.20400001 10780286
0.00085085887 0.017571956 0.20500001 10714493
0.0018148638 0.017571956 0.20500001 10977152
0.002765313 0.017486239 0.20400001 11372164
0.0037246151 0.017486239 0.20400001 10911613
0.0046839174 0.017486239 0.20400001 11107968
0.0056432197 0.017486239 0.20400001 10976382
0.0066025225 0.017486239 0.20400001 10647417
0.0075618243 0.017486239 0.20400001 10581626
0.0085211266 0.017486239 0.20400001 10450040
0.0094339559 0.017400522 0.20300001 10317941
0.010388555 0.017400522 0.20300001 10448755
0.011343156 0.017400522 0.20300001 10251376
0.012297755 0.017400522 0.20300001 10909046
0.013252354 0.017400522 0.20300001 11830148
0.014206954 0.017400522 0.20300001 11567238
0.015086867 0.017314805 0.20200001 10647421
0.016036766 0.017314805 0.20200001 11306634
0.017070753 0.017400522 0.20300001 11174535
0.018025354 0.017400522 0.20300001 11173248
0.019073451 0.017486239 0.20400001 10581111
0.020032754 0.017486239 0.20400001 9660524
0.020992056 0.017486239 0.20400001 9595501
0.022058962 0.017571956 0.20500001 9858671
0.023022968 0.017571956 0.20500001 10450808
0.023986973 0.017571956 0.20500001 10385015
0.024950977 0.017571956 0.20500001 9989489
0.025914982 0.017571956 0.20500001 9463145
0.026878987 0.017571956 0.20500001 9265766
0.027842993 0.017571956 0.20500001 9331557
0.028806997 0.017571956 0.20500001 9331557
0.029771002 0.017571956 0.20500001 9331557
0.030735005 0.017571956 0.20500001 9398120
0.031699009 0.017571956 0.20500001 9398633
0.032663014 0.017571956 0.20500001 9135461
0.033627018 0.017571956 0.20500001 8543324
0.034591027 0.017571956 0.20500001 8347231
0.035555031 0.017571956 0.20500001 8084061
0.036519036 0.017571956 0.20500001 8281953
0.037300192 0.017486239 0.20400001 7691617
-0.0051497477 0.019349735 0.21400002 5128517
-0.0040853354 0.019078476 0.21100001 6375755
-0.003093116 0.019078476 0.21100001 7887193
-0.0020909396 0.018988056 0.21000001 8873575
-0.0010981681 0.018897638 0.20900001 9135977
-0.00011314582 0.01853596 0.20500001 8872803
0.00085500942 0.018626381 0.20600002 10122870
0.0018325697 0.018716799 0.20700002 10846847
0.0027924238 0.018626381 0.20600002 10912126
0.0037611309 0.018626381 0.20600002 10780540
0.0047298381 0.018626381 0.20600002 10648700
0.0056985454 0.018626381 0.20600002 10319735
0.0066672531 0.018626381 0.20600002 9792880
0.0075988919 0.01853596 0.20500001 9596014
0.0085628973 0.01853596 0.20500001 9924466
0.0095269019 0.01853596 0.20500001 9792880
0.010490905 0.01853596 0.20500001 10581111
0.011454911 0.01853596 0.20500001 10449525
0.012418916 0.01853596 0.20500001 10515318
0.01338292 0.01853596 0.20500001 10317939
0.014346925 0.01853596 0.20500001 10581626
0.015236243 0.018445542 0.20400001 10319224
0.016195545 0.018445542 0.20400001 10189183
0.017238939 0.01853596 0.20500001 9992058
0.018202944 0.01853596 0.20500001 10253429
0.019166948 0.01853596 0.20500001 10252659
0.020229153 0.018626381 0.20600002 9792878
0.021197861 0.018626381 0.20600002 10517116
0.022274172 0.018716799 0.20700002 9990772
0.023247583 0.018716799 0.20700002 9990772
0.024220992 0.018716799 0.20700002 10056565
0.025194401 0.018716799 0.20700002 9792880
0.026167812 0.018716799 0.20700002 8213078
0.027010104 0.018626381 0.20600002 9068387
0.027978811 0.018626381 0.20600002 9003877
0.028947519 0.018626381 0.20600002 8872291
0.029916227 0.018626381 0.20600002 8741219
0.030884931 0.018626381 0.20600002 8741219
0.031853639 0.018626381 0.20600002 8610403
0.032822348 0.018626381 0.20600002 7755094
0.033791054 0.018626381 0.20600002 7097677
0.034759764 0.018626381 0.20600002 8283236
0.035728469 0.018626381 0.20600002 8086887
0.036519036 0.01853596 0.20500001 6706519
-0.0051497477 0.020356063 0.21400002 4078911
-0.0041240589 0.020260939 0.21300001 4669765
-0.0031224345 0.020260939 0.21300001 5588298
-0.0021208101 0.020260939 0.21300001 5717057
-0.0011139313 0.020165818 0.21200001 7821402
0.00085915992 0.01969021 0.20700002 9006955
0.0018414226 0.01978533 0.208 8545893
0.0028059795 0.01969021 0.20700002 10452607
0.003779389 0.01969021 0.20700002 10518400
0.0047527985 0.01969021 0.20700002 10189435
0.0057262084 0.01969021 0.20700002 10518400
0.0066996184 0.01969021 0.20700002 10123642
0.0076730275 0.01969021 0.20700002 9794677
0.0086464379 0.01969021 0.20700002 9990772
0.0096198469 0.01969021 0.20700002 10056565
0.010593256 0.01969021 0.20700002 9924977
0.011566667 0.01969021 0.20700002 10056050
0.012540076 0.01969021 0.20700002 9990257
0.013448202 0.019595088 0.20600002 9792878
0.01441691 0.019595088 0.20600002 9463913
0.015460305 0.01969021 0.20700002 9595501
0.016354324 0.019595088 0.20600002 9662839
0.017323032 0.019595088 0.20600002 9269364
0.018380534 0.01969021 0.20700002 9793907
0.019353945 0.01969021 0.20700002 9728114
0.020327354 0.01969021 0.20700002 9662321
0.021403663 0.01978533 0.208 9069670
0.022381775 0.01978533 0.208 9069670
0.023359889 0.01978533 0.208 9332842
0.024338001 0.01978533 0.208 8543326
0.025316112 0.01978533 0.208 8806498
0.026294224 0.01978533 0.208 8674910
0.027141221 0.01969021 0.20700002 9069668
0.028114632 0.01969021 0.20700002 8411738
0.029088041 0.01969021 0.20700002 7886678
0.030061452 0.01969021 0.20700002 7689816
0.031034859 0.01969021 0.20700002 7624793
0.032008268 0.01969021 0.20700002 6703437
0.032981679 0.01969021 0.20700002 6178890
0.03395509 0.01969021 0.20700002 5851208
0.034928501 0.01969021 0.20700002 5326149
0.035728469 0.019595088 0.20600002 4866372
-0.0041434206 0.02136239 0.21400002 4342342
-0.003151753 0.021462213 0.215 4473926
-0.0021407236 0.021462213 0.215 4868427
-0.0011244401 0.02136239 0.21400002 4339001
-0.00011921705 0.021562036 0.21600001 6180175
0.00087576202 0.021062916 0.21100001 10984347
