# .PCD v0.7 - Point Cloud Data file format
VERSION 0.7
FIELDS x y z rgb
SIZE 4 4 4 4
TYPE F F F U
COUNT 1 1 1 1
WIDTH 1104
HEIGHT 1
VIEWPOINT 0 0 0 1 0 0 0
POINTS 1104
DATA ascii
0.018657958 0.017179672 0.19000001 8999253
0.019551424 0.017179672 0.19000001 9001309
0.020444892 0.017179672 0.19000001 5645870
0.02133836 0.017179672 0.19000001 5645866
0.022231828 0.017179672 0.19000001 6172464
0.023125295 0.017179672 0.19000001 5910062
0.024018764 0.017179672 0.19000001 5582380
0.024912233 0.017179672 0.19000001 5449257
0.025805701 0.017179672 0.19000001 5515563
0.026699169 0.017179672 0.19000001 6240058
0.027592637 0.017179672 0.19000001 5845811
0.028336175 0.017089251 0.18900001 4925475
0.035446297 0.017089251 0.18900001 5909290
0.036527313 0.017179672 0.19000001 5581095
0.037420779 0.017179672 0.19000001 5645606
0.038314249 0.017179672 0.19000001 5051673
0.039207716 0.017179672 0.19000001 5576472
0.040101185 0.017179672 0.19000001 5770769
0.04077889 0.017089251 0.18900001 8401204
0.041667655 0.017089251 0.18900001 10901853
0.04255642 0.017089251 0.18900001 11362404
0.043445185 0.017089251 0.18900001 10638168
0.04433395 0.017089251 0.18900001 11033957
0.045222718 0.017089251 0.18900001 11560303
0.046111483 0.017089251 0.18900001 14982564
0.047000248 0.017089251 0.18900001 13146270
-0.01735045 0.018358504 0.193 4869454
-0.016357679 0.018263381 0.192 4273975
-0.015374313 0.018168261 0.19100001 11107709
-0.014400352 0.01807314 0.19000001 11497840
-0.013506884 0.01807314 0.19000001 12745854
-0.012547029 0.017978016 0.18900001 12876670
-0.011658264 0.017978016 0.18900001 12743544
-0.010826481 0.01807314 0.19000001 12479854
-0.0099330125 0.01807314 0.19000001 13071221
-0.0090395454 0.01807314 0.19000001 12018533
-0.0081460774 0.01807314 0.19000001 11492705
-0.0072526094 0.01807314 0.19000001 10637396
-0.0063591413 0.01807314 0.19000001 9914956
-0.0054656737 0.01807314 0.19000001 10178130
-0.0045722057 0.01807314 0.19000001 11296611
-0.0036787379 0.01807314 0.19000001 10178130
-0.0027852703 0.01807314 0.19000001 9389382
-0.0018918024 0.01807314 0.19000001 9323850
-0.00099833461 0.01807314 0.19000001 11627891
-0.00010486686 0.01807314 0.19000001 10641763
0.00078860088 0.01807314 0.19000001 9720148
0.0016820688 0.01807314 0.19000001 8996171
0.0025755367 0.01807314 0.19000001 8733512
0.0034690043 0.01807314 0.19000001 9391442
0.0043624719 0.01807314 0.19000001 9786970
0.0052559399 0.01807314 0.19000001 10906480
0.0061494079 0.01807314 0.19000001 11696766
0.0070428755 0.01807314 0.19000001 10840687
0.0079363436 0.01807314 0.19000001 11103343
0.0088298116 0.01807314 0.19000001 11629174
0.0097232787 0.01807314 0.19000001 10970476
0.010616747 0.01807314 0.19000001 12878989
0.011510214 0.01807314 0.19000001 14392745
0.012403682 0.01807314 0.19000001 9985126
0.01329715 0.01807314 0.19000001 10445675
0.014190618 0.01807314 0.19000001 11366777
0.015084086 0.01807314 0.19000001 11432310
0.015977552 0.01807314 0.19000001 12287619
0.016871022 0.01807314 0.19000001 10840171
0.01776449 0.01807314 0.19000001 10709099
0.018657958 0.01807314 0.19000001 10447212
0.019551424 0.01807314 0.19000001 16766684
0.020444892 0.01807314 0.19000001 15974855
0.02133836 0.01807314 0.19000001 9393757
0.022231828 0.01807314 0.19000001 9854562
0.023125295 0.01807314 0.19000001 9986661
0.024018764 0.01807314 0.19000001 9130839
0.024912233 0.01807314 0.19000001 11301238
0.025805701 0.01807314 0.19000001 10973556
0.026699169 0.01807314 0.19000001 9527141
0.027447412 0.017978016 0.18900001 6172212
0.028336175 0.017978016 0.18900001 5318184
0.035633843 0.01807314 0.19000001 4920339
0.036527313 0.01807314 0.19000001 4853522
0.037420779 0.01807314 0.19000001 9456722
0.038314249 0.01807314 0.19000001 10706789
0.039207716 0.01807314 0.19000001 12548477
0.040101185 0.01807314 0.19000001 12547705
0.04077889 0.017978016 0.18900001 12744827
0.041667655 0.017978016 0.18900001 11955568
0.04255642 0.017978016 0.18900001 11231588
0.043445185 0.017978016 0.18900001 12810622
0.04433395 0.017978016 0.18900001 13928849
0.045222718 0.017978016 0.18900001 15902639
0.046111483 0.017978016 0.18900001 15706541
0.047000248 0.017978016 0.18900001 13408926
-0.01735045 0.019266078 0.193 3882559
-0.016357679 0.019166255 0.192 4405821
-0.015374313 0.019066432 0.19100001 11240837
-0.014400352 0.018966608 0.19000001 13735315
-0.013506884 0.018966608 0.19000001 13207177
-0.012547029 0.018866783 0.18900001 12745856
-0.011658264 0.018866783 0.18900001 13928331
-0.010826481 0.018966608 0.19000001 12809337
-0.0099330125 0.018966608 0.19000001 13400704
-0.0090395454 0.018966608 0.19000001 12479602
-0.0081460774 0.018966608 0.19000001 13664648
-0.0072526094 0.018966608 0.19000001 12217715
-0.0063591413 0.018966608 0.19000001 13008258
-0.0054656737 0.018966608 0.19000001 16299455
-0.0045722057 0.018966608 0.19000001 13865884
-0.0036787379 0.018966608 0.19000001 11298926
-0.0027852703 0.018966608 0.19000001 11036008
-0.0018918024 0.018966608 0.19000001 11036008
-0.00099833461 0.018966608 0.19000001 12681612
-0.00010486686 0.018966608 0.19000001 11497336
0.00078860088 0.018966608 0.19000001 11168625
0.0016820688 0.018966608 0.19000001 16235199
0.0025755367 0.018966608 0.19000001 16763083
0.0034690043 0.018966608 0.19000001 16631493
0.0043624719 0.018966608 0.19000001 11565439
0.0052559399 0.018966608 0.19000001 12487315
0.0061494079 0.018966608 0.19000001 12881299
0.0070428755 0.018966608 0.19000001 13538198
0.0079363436 0.018966608 0.19000001 13011340
0.0088298116 0.018966608 0.19000001 12879754
0.0097232787 0.018966608 0.19000001 12483715
0.010616747 0.018966608 0.19000001 16761804
0.011510214 0.018966608 0.19000001 16170436
0.012403682 0.018966608 0.19000001 16039365
0.01329715 0.018966608 0.19000001 13208981
0.014190618 0.018966608 0.19000001 13603479
0.015084086 0.018966608 0.19000001 13865366
0.015977552 0.018966608 0.19000001 13405069
0.016871022 0.018966608 0.19000001 13537425
0.01776449 0.018966608 0.19000001 13208208
0.018657958 0.018966608 0.19000001 15184054
0.019551424 0.018966608 0.19000001 16764630
0.020444892 0.018966608 0.19000001 16763605
0.02133836 0.018966608 0.19000001 12814225
0.022231828 0.018966608 0.19000001 12221572
0.023125295 0.018966608 0.19000001 12353158
0.024018764 0.018966608 0.19000001 12944782
0.024912233 0.018966608 0.19000001 13536149
0.025805701 0.018966608 0.19000001 13932192
0.026699169 0.018966608 0.19000001 16770286
0.027592637 0.018966608 0.19000001 16770536
0.028336175 0.018866783 0.18900001 15122113
0.02922494 0.018866783 0.18900001 6567740
0.030113706 0.018866783 0.18900001 5973286
0.031002471 0.018866783 0.18900001 6499884
0.032059975 0.018966608 0.19000001 6105126
0.032953441 0.018966608 0.19000001 6631986
0.033846911 0.018966608 0.19000001 8606030
0.034740377 0.018966608 0.19000001 9328468
0.035633843 0.018966608 0.19000001 10181978
0.036527313 0.018966608 0.19000001 10508890
0.037420779 0.018966608 0.19000001 14587288
0.038314249 0.018966608 0.19000001 12087156
0.039207716 0.018966608 0.19000001 12021363
0.040101185 0.018966608 0.19000001 11955570
0.04077889 0.018866783 0.18900001 12613243
0.041667655 0.018866783 0.18900001 12876672
0.04255642 0.018866783 0.18900001 13600138
0.043445185 0.018866783 0.18900001 14915228
0.04433395 0.018866783 0.18900001 16363444
0.045222718 0.018866783 0.18900001 15969459
0.046111483 0.018866783 0.18900001 14655906
0.047000248 0.018866783 0.18900001 11238791
-0.01735045 0.020173654 0.193 3815996
-0.016357679 0.020069126 0.192 4143936
-0.015374313 0.019964602 0.19100001 6703437
-0.014400352 0.019860074 0.19000001 13869216
-0.013506884 0.019860074 0.19000001 13932183
-0.012547029 0.019755548 0.18900001 14062486
-0.011658264 0.019755548 0.18900001 13073024
-0.010826481 0.019860074 0.19000001 15242140
-0.0099330125 0.019860074 0.19000001 16492207
-0.0090395454 0.019860074 0.19000001 15769254
-0.0081460774 0.019860074 0.19000001 15112094
-0.0072526094 0.019860074 0.19000001 12218488
-0.0063591413 0.019860074 0.19000001 16431813
-0.0054656737 0.019860074 0.19000001 16764631
-0.0045722057 0.019860074 0.19000001 16765659
-0.0036787379 0.019860074 0.19000001 12418692
-0.0027852703 0.019860074 0.19000001 13865366
-0.0018918024 0.019860074 0.19000001 12747657
-0.00099833461 0.019860074 0.19000001 13867683
-0.00010486686 0.019860074 0.19000001 12484746
0.00078860088 0.019860074 0.19000001 14260126
0.0016820688 0.019860074 0.19000001 16761028
0.0025755367 0.019860074 0.19000001 16631239
0.0034690043 0.019860074 0.19000001 16499914
0.0043624719 0.019860074 0.19000001 14066345
0.0052559399 0.019860074 0.19000001 12225170
0.0061494079 0.019860074 0.19000001 12882836
0.0070428755 0.019860074 0.19000001 14065314
0.0079363436 0.019860074 0.19000001 14064542
0.0088298116 0.019860074 0.19000001 13866649
0.0097232787 0.019860074 0.19000001 14064282
0.010616747 0.019860074 0.19000001 13668759
0.011510214 0.019860074 0.19000001 16766683
0.012403682 0.019860074 0.19000001 16767454
0.01329715 0.019860074 0.19000001 13274001
0.014190618 0.019860074 0.19000001 12879241
0.015084086 0.019860074 0.19000001 13010311
0.015977552 0.019860074 0.19000001 13996691
0.016871022 0.019860074 0.19000001 13930898
0.01776449 0.019860074 0.19000001 13470608
0.018657958 0.019860074 0.19000001 15181746
0.019551424 0.019860074 0.19000001 16763347
0.020444892 0.019860074 0.19000001 12482950
0.02133836 0.019860074 0.19000001 13601942
0.022231828 0.019860074 0.19000001 13141391
0.023125295 0.019860074 0.19000001 13339024
0.024018764 0.019860074 0.19000001 13994901
0.024912233 0.019860074 0.19000001 16760008
0.025805701 0.019860074 0.19000001 15247541
0.026699169 0.019860074 0.19000001 16773880
0.027592637 0.019860074 0.19000001 16776187
0.028486101 0.019860074 0.19000001 16774141
0.029379569 0.019860074 0.19000001 11106689
0.030273039 0.019860074 0.19000001 11892861
0.031166507 0.019860074 0.19000001 11037291
0.032059975 0.019860074 0.19000001 11498355
0.032953441 0.019860074 0.19000001 10972011
0.033846911 0.019860074 0.19000001 10183009
0.034740377 0.019860074 0.19000001 9854814
0.035633843 0.019860074 0.19000001 14262173
0.036527313 0.019860074 0.19000001 13800597
0.037420779 0.019860074 0.19000001 15772850
0.038314249 0.019860074 0.19000001 13665934
0.039207716 0.019860074 0.19000001 13731727
0.040101185 0.019860074 0.19000001 14587036
0.04077889 0.019755548 0.18900001 14060689
0.041667655 0.019755548 0.18900001 15573158
0.04255642 0.019755548 0.18900001 14981021
0.043445185 0.019755548 0.18900001 14981791
0.04433395 0.019755548 0.18900001 15245220
0.045222718 0.019755548 0.18900001 15510191
0.046111483 0.019755548 0.18900001 14261671
0.047000248 0.019755548 0.18900001 3738904
-0.01735045 0.021081228 0.193 2830639
-0.016357679 0.020971999 0.192 3748661
-0.015374313 0.020862771 0.19100001 5057329
-0.014400352 0.020753542 0.19000001 11305349
-0.013506884 0.020753542 0.19000001 13735317
-0.012547029 0.020644313 0.18900001 13799827
-0.011658264 0.020644313 0.18900001 13863310
-0.010826481 0.020753542 0.19000001 15834277
-0.0099330125 0.020753542 0.19000001 16492205
-0.0090395454 0.020753542 0.19000001 16360621
-0.0081460774 0.020753542 0.19000001 16559540
-0.0072526094 0.020753542 0.19000001 15837103
-0.0063591413 0.020753542 0.19000001 14195364
-0.0054656737 0.020753542 0.19000001 16765145
-0.0045722057 0.020753542 0.19000001 16632787
-0.0036787379 0.020753542 0.19000001 15183545
-0.0027852703 0.020753542 0.19000001 13800345
-0.0018918024 0.020753542 0.19000001 13800345
-0.00099833461 0.020753542 0.19000001 13802401
-0.00010486686 0.020753542 0.19000001 13998497
0.00078860088 0.020753542 0.19000001 14391451
0.0016820688 0.020753542 0.19000001 14523035
0.0025755367 0.020753542 0.19000001 16764109
0.0034690043 0.020753542 0.19000001 16765395
0.0043624719 0.020753542 0.19000001 16766684
0.0052559399 0.020753542 0.19000001 12489110
0.0061494079 0.020753542 0.19000001 12750996
0.0070428755 0.020753542 0.19000001 12881038
0.0079363436 0.020753542 0.19000001 13735063
0.0088298116 0.020753542 0.19000001 14064282
0.0097232787 0.020753542 0.19000001 14590113
0.010616747 0.020753542 0.19000001 14261148
0.011510214 0.020753542 0.19000001 13865366
0.012403682 0.020753542 0.19000001 13733267
0.01329715 0.020753542 0.19000001 14456990
0.014190618 0.020753542 0.19000001 14391451
0.015084086 0.020753542 0.19000001 14654623
0.015977552 0.020753542 0.19000001 14785437
0.016871022 0.020753542 0.19000001 14917795
0.01776449 0.020753542 0.19000001 12680840
0.018657958 0.020753542 0.19000001 14458023
0.019551424 0.020753542 0.19000001 16760008
0.020444892 0.020753542 0.19000001 13863315
0.02133836 0.020753542 0.19000001 13009546
0.022231828 0.020753542 0.19000001 12483461
0.023125295 0.020753542 0.19000001 13535890
0.024018764 0.020753542 0.19000001 15969461
0.024912233 0.020753542 0.19000001 16759234
0.025805701 0.020753542 0.19000001 16564424
0.026699169 0.020753542 0.19000001 16774647
0.027592637 0.020753542 0.19000001 16710135
0.028486101 0.020753542 0.19000001 16773111
0.029379569 0.020753542 0.19000001 14196909
0.030273039 0.020753542 0.19000001 15509941
0.031166507 0.020753542 0.19000001 14457505
0.032059975 0.020753542 0.19000001 13865368
0.032953441 0.020753542 0.19000001 14260378
0.033846911 0.020753542 0.19000001 13341073
0.034740377 0.020753542 0.19000001 12289162
0.035633843 0.020753542 0.19000001 16039365
0.036527313 0.020753542 0.19000001 16631500
0.037420779 0.020753542 0.19000001 16764114
0.038314249 0.020753542 0.19000001 15179173
0.039207716 0.020753542 0.19000001 15244709
0.039890125 0.020644313 0.18900001 15310502
0.04077889 0.020644313 0.18900001 15179170
0.041667655 0.020644313 0.18900001 15704744
0.04255642 0.020644313 0.18900001 15442342
0.043445185 0.020644313 0.18900001 16100527
0.04433395 0.020644313 0.18900001 15839408
0.045222718 0.020644313 0.18900001 14328484
0.046111483 0.020644313 0.18900001 10317943
0.047000248 0.020644313 0.18900001 9796740
-0.01735045 0.021988804 0.193 9931657
-0.016357679 0.021874873 0.192 11969437
-0.015374313 0.021760942 0.19100001 10588558
-0.014400352 0.02164701 0.19000001 7625304
-0.013506884 0.02164701 0.19000001 10447980
-0.012547029 0.021533079 0.18900001 13208973
-0.011658264 0.021533079 0.18900001 14391451
-0.010826481 0.02164701 0.19000001 15573928
-0.0099330125 0.02164701 0.19000001 16098989
-0.0090395454 0.02164701 0.19000001 15506082
-0.0081460774 0.02164701 0.19000001 14454677
-0.0072526094 0.02164701 0.19000001 15113377
-0.0063591413 0.02164701 0.19000001 14588324
-0.0054656737 0.02164701 0.19000001 16769258
-0.0045722057 0.02164701 0.19000001 16767712
-0.0036787379 0.02164701 0.19000001 16763857
-0.0027852703 0.02164701 0.19000001 14917541
-0.0018918024 0.02164701 0.19000001 14590374
-0.00099833461 0.02164701 0.19000001 13539229
-0.00010486686 0.02164701 0.19000001 14854058
0.00078860088 0.02164701 0.19000001 15574953
0.0016820688 0.02164701 0.19000001 13863565
0.0025755367 0.02164701 0.19000001 14126737
0.0034690043 0.02164701 0.19000001 13733521
0.0043624719 0.02164701 0.19000001 13474460
0.0052559399 0.02164701 0.19000001 11568006
0.0061494079 0.02164701 0.19000001 12619410
0.0070428755 0.02164701 0.19000001 12946833
0.0079363436 0.02164701 0.19000001 13340305
0.0088298116 0.02164701 0.19000001 13405585
0.0097232787 0.02164701 0.19000001 13931413
0.010616747 0.02164701 0.19000001 14128792
0.011510214 0.02164701 0.19000001 13601935
0.012403682 0.02164701 0.19000001 13667728
0.01329715 0.02164701 0.19000001 13733521
0.014190618 0.02164701 0.19000001 13995923
0.015084086 0.02164701 0.19000001 13732751
0.015977552 0.02164701 0.19000001 13995153
0.016871022 0.02164701 0.19000001 12877188
0.01776449 0.02164701 0.19000001 12548993
0.018657958 0.02164701 0.19000001 13667735
0.019551424 0.02164701 0.19000001 13667476
0.020444892 0.02164701 0.19000001 13601681
0.02133836 0.02164701 0.19000001 13535888
0.022231828 0.02164701 0.19000001 13075337
0.023125295 0.02164701 0.19000001 13008004
0.024018764 0.02164701 0.19000001 14192021
0.024912233 0.02164701 0.19000001 16759747
0.025805701 0.02164701 0.19000001 16298426
0.026699169 0.02164701 0.19000001 16772852
0.027592637 0.02164701 0.19000001 16776183
0.028486101 0.02164701 0.19000001 16773881
0.029379569 0.02164701 0.19000001 14065062
0.030273039 0.02164701 0.19000001 13864601
0.031166507 0.02164701 0.19000001 14983082
0.032059975 0.02164701 0.19000001 14851750
0.032953441 0.02164701 0.19000001 13931159
0.033846911 0.02164701 0.19000001 13800343
0.034740377 0.02164701 0.19000001 14328747
0.035633843 0.02164701 0.19000001 16764120
0.036527313 0.02164701 0.19000001 16698067
0.037420779 0.02164701 0.19000001 16763345
0.038314249 0.02164701 0.19000001 13601681
0.039207716 0.02164701 0.19000001 15574185
0.039890125 0.021533079 0.18900001 15574185
0.04077889 0.021533079 0.18900001 15376806
0.041667655 0.021533079 0.18900001 14850462
0.04255642 0.021533079 0.18900001 15969713
0.043445185 0.021533079 0.18900001 14458527
0.04433395 0.021533079 0.18900001 12028041
-0.01735045 0.022896379 0.193 4080710
-0.016357679 0.022777746 0.192 3750203
-0.015374313 0.022659114 0.19100001 3814967
-0.014400352 0.022540478 0.19000001 4207668
-0.013506884 0.022540478 0.19000001 6832197
-0.012613416 0.022540478 0.19000001 12091522
-0.011658264 0.022421844 0.18900001 11695480
-0.010826481 0.022540478 0.19000001 12745856
-0.0099330125 0.022540478 0.19000001 13468807
-0.0090395454 0.022540478 0.19000001 13731722
-0.0081460774 0.022540478 0.19000001 13929101
-0.0072526094 0.022540478 0.19000001 14324116
-0.0063591413 0.022540478 0.19000001 14718876
-0.0054656737 0.022540478 0.19000001 15113380
-0.0045722057 0.022540478 0.19000001 15114920
-0.0036787379 0.022540478 0.19000001 14522783
-0.0027852703 0.022540478 0.19000001 14785439
-0.0018918024 0.022540478 0.19000001 14195355
-0.00099833461 0.022540478 0.19000001 12749454
-0.00010486686 0.022540478 0.19000001 13998749
0.00078860088 0.022540478 0.19000001 13798544
0.0016820688 0.022540478 0.19000001 13731979
0.0025755367 0.022540478 0.19000001 13601163
0.0034690043 0.022540478 0.19000001 14062486
0.0043624719 0.022540478 0.19000001 13802140
0.0052559399 0.022540478 0.19000001 10777974
0.0061494079 0.022540478 0.19000001 11895174
0.0070428755 0.022540478 0.19000001 12617868
0.0079363436 0.022540478 0.19000001 12881038
0.0088298116 0.022540478 0.19000001 13011594
0.0097232787 0.022540478 0.19000001 13865620
0.010616747 0.022540478 0.19000001 13931411
0.011510214 0.022540478 0.19000001 13996691
0.012403682 0.022540478 0.19000001 13601933
0.01329715 0.022540478 0.19000001 13733521
0.014190618 0.022540478 0.19000001 13404556
0.015084086 0.022540478 0.19000001 12877442
0.015977552 0.022540478 0.19000001 12680063
0.016871022 0.022540478 0.19000001 12680833
0.01776449 0.022540478 0.19000001 12417407
0.018657958 0.022540478 0.19000001 12680581
0.019551424 0.022540478 0.19000001 13207438
0.020444892 0.022540478 0.19000001 13141643
0.02133836 0.022540478 0.19000001 13339022
0.022231828 0.022540478 0.19000001 13602448
0.023125295 0.022540478 0.19000001 13536142
0.024018764 0.022540478 0.19000001 13995153
0.024912233 0.022540478 0.19000001 13929103
0.025805701 0.022540478 0.19000001 15771053
0.026699169 0.022540478 0.19000001 15969461
0.027592637 0.022540478 0.19000001 15444146
0.028486101 0.022540478 0.19000001 15972287
0.029379569 0.022540478 0.19000001 16764370
0.030273039 0.022540478 0.19000001 14457505
0.031166507 0.022540478 0.19000001 14588324
0.032059975 0.022540478 0.19000001 14983849
0.032953441 0.022540478 0.19000001 14195614
0.033846911 0.022540478 0.19000001 14525093
0.034740377 0.022540478 0.19000001 13933476
0.035633843 0.022540478 0.19000001 16764374
0.036527313 0.022540478 0.19000001 16764629
0.037420779 0.022540478 0.19000001 16764885
0.038314249 0.022540478 0.19000001 13274001
0.039207716 0.022540478 0.19000001 14324634
0.039890125 0.022421844 0.18900001 14785439
0.04077889 0.022421844 0.18900001 14522267
0.041667655 0.022421844 0.18900001 12615040
0.04255642 0.022421844 0.18900001 11630971
0.043445185 0.022421844 0.18900001 11175560
-0.017440349 0.02392729 0.19400001 3817284
-0.016442874 0.023803953 0.193 3751745
-0.015454805 0.023680616 0.192 3816766
-0.014400352 0.023433946 0.19000001 3815996
-0.013506884 0.023433946 0.19000001 4076345
-0.012613416 0.023433946 0.19000001 6505288
-0.011719949 0.023433946 0.19000001 11304064
-0.010883463 0.023557283 0.19100001 12288131
-0.0099330125 0.023433946 0.19000001 12879493
-0.0090395454 0.023433946 0.19000001 12418942
-0.0081460774 0.023433946 0.19000001 12549243
-0.0072526094 0.023433946 0.19000001 12680829
-0.0063591413 0.023433946 0.19000001 13337989
-0.0054656737 0.023433946 0.19000001 13535370
-0.0045722057 0.023433946 0.19000001 13207175
-0.0036787379 0.023433946 0.19000001 14062484
-0.0027999296 0.023557283 0.19100001 13865618
-0.0019017593 0.023557283 0.19100001 14392993
-0.001003589 0.023557283 0.19100001 12026244
-0.00010541879 0.023557283 0.19100001 12749452
0.00079275144 0.023557283 0.19100001 12813702
0.0016909218 0.023557283 0.19100001 13076104
0.0025890921 0.023557283 0.19100001 13602448
0.0034872622 0.023557283 0.19100001 13669011
0.0043854327 0.023557283 0.19100001 13800856
0.005283603 0.023557283 0.19100001 12881040
0.0061817733 0.023557283 0.19100001 12551821
0.0070799435 0.023557283 0.19100001 12946833
0.0079781143 0.023557283 0.19100001 13077647
0.0088762837 0.023557283 0.19100001 13011854
0.0097744539 0.023557283 0.19100001 13340559
0.010672624 0.023557283 0.19100001 13472145
0.011570795 0.023557283 0.19100001 13208973
0.012468965 0.023557283 0.19100001 12879754
0.01329715 0.023433946 0.19000001 12879754
0.014265305 0.023557283 0.19100001 12419205
0.015163477 0.023557283 0.19100001 12287106
0.016061645 0.023557283 0.19100001 12681862
0.016959816 0.023557283 0.19100001 12944518
0.017857987 0.023557283 0.19100001 12483967
0.018756157 0.023557283 0.19100001 12352897
0.019654326 0.023557283 0.19100001 12484485
0.020552497 0.023557283 0.19100001 12813450
0.021450669 0.023557283 0.19100001 12945034
0.022348838 0.023557283 0.19100001 13208206
0.023247007 0.023557283 0.19100001 13405839
0.024145178 0.023557283 0.19100001 13668241
0.02504335 0.023557283 0.19100001 13667728
0.025941519 0.023557283 0.19100001 14652829
0.02683969 0.023557283 0.19100001 14719392
0.027737861 0.023557283 0.19100001 16364217
0.028486101 0.023433946 0.19000001 15049642
0.029379569 0.023433946 0.19000001 14918824
0.030273039 0.023433946 0.19000001 14326687
0.031166507 0.023433946 0.19000001 14983847
0.032059975 0.023433946 0.19000001 15049640
0.032953441 0.023433946 0.19000001 14261407
0.033846911 0.023433946 0.19000001 14261923
0.034740377 0.023433946 0.19000001 13143442
0.035633843 0.023433946 0.19000001 13077395
0.036527313 0.023433946 0.19000001 13340567
0.037420779 0.023433946 0.19000001 14130855
0.038314249 0.023433946 0.19000001 11432570
0.039207716 0.023433946 0.19000001 12024447
0.039890125 0.023310609 0.18900001 12023932
0.04077889 0.023310609 0.18900001 12287358
0.041667655 0.023310609 0.18900001 12684174
0.04255642 0.023310609 0.18900001 7754842
-0.017440349 0.024839567 0.19400001 3620159
-0.016442874 0.024711529 0.193 3488573
-0.015454805 0.024583489 0.192 3093815
-0.014400352 0.024327412 0.19000001 3225401
-0.013506884 0.024327412 0.19000001 3685182
-0.012679802 0.02445545 0.19100001 4010552
-0.011781632 0.02445545 0.19100001 7885912
-0.010883463 0.02445545 0.19100001 9462114
-0.0099852914 0.02445545 0.19100001 11172216
-0.009087122 0.02445545 0.19100001 11303289
-0.0081889508 0.02445545 0.19100001 12024959
-0.007290781 0.02445545 0.19100001 13011594
-0.0063926107 0.02445545 0.19100001 13011079
-0.0054944404 0.02445545 0.19100001 12812932
-0.0045962702 0.02445545 0.19100001 12681346
-0.0036980996 0.02445545 0.19100001 13010311
-0.0028145888 0.024583489 0.192 12945288
-0.0019117161 0.024583489 0.192 12813963
-0.0010088434 0.024583489 0.192 11499646
-0.00010597071 0.024583489 0.192 12552334
0.00079690194 0.024583489 0.192 12617098
0.0016997746 0.024583489 0.192 12748170
0.0026026473 0.024583489 0.192 13076620
0.0035055198 0.024583489 0.192 13471378
0.0044083926 0.024583489 0.192 13669272
0.0053112651 0.024583489 0.192 12879756
0.0062141381 0.024583489 0.192 12617098
0.0071170107 0.024583489 0.192 13142928
0.0080198841 0.024583489 0.192 13800343
0.0089227557 0.024583489 0.192 13471891
0.0098256283 0.024583489 0.192 13472405
0.010728502 0.024583489 0.192 13209233
0.011631373 0.024583489 0.192 13472405
0.012534246 0.024583489 0.192 12814477
0.013367135 0.02445545 0.19100001 12157576
0.014339992 0.024583489 0.192 12222856
0.015242865 0.024583489 0.192 12222340
0.016145736 0.024583489 0.192 12682891
0.01704861 0.024583489 0.192 12748168
0.017951483 0.024583489 0.192 12879754
0.018854355 0.024583489 0.192 13011340
0.019757228 0.024583489 0.192 12945547
0.020660101 0.024583489 0.192 12748168
0.021562973 0.024583489 0.192 12617096
0.022465847 0.024583489 0.192 12353924
0.023368718 0.024583489 0.192 12485510
0.024271591 0.024583489 0.192 12879754
0.025174465 0.024583489 0.192 12879754
0.026077338 0.024583489 0.192 12484483
0.02683969 0.02445545 0.19100001 12220541
0.027737861 0.02445545 0.19100001 12681094
0.028636029 0.02445545 0.19100001 12549508
0.0295342 0.02445545 0.19100001 13799573
0.03043237 0.02445545 0.19100001 13865366
0.031330541 0.02445545 0.19100001 12615299
0.032228712 0.02445545 0.19100001 12220541
0.033126883 0.02445545 0.19100001 12089725
0.034025054 0.02445545 0.19100001 11892859
0.034923222 0.02445545 0.19100001 11827582
0.035633843 0.024327412 0.19000001 12551305
0.036527313 0.024327412 0.19000001 12485512
0.037420779 0.024327412 0.19000001 12485512
0.038314249 0.024327412 0.19000001 12222340
0.039207716 0.024327412 0.19000001 11630973
0.039890125 0.024199372 0.18900001 11894656
0.04077889 0.024199372 0.18900001 11633283
-0.017440349 0.025751846 0.19400001 3554366
-0.0155353 0.025619103 0.193 3159608
-0.014551934 0.025486361 0.192 3291194
-0.013506884 0.02522088 0.19000001 3356987
-0.012679802 0.025353622 0.19100001 3487033
-0.011843315 0.025486361 0.192 4073776
-0.010883463 0.025353622 0.19100001 9069668
-0.01003757 0.025486361 0.192 10252400
-0.0091346977 0.025486361 0.192 11238525
-0.0082318243 0.025486361 0.192 11828865
-0.0073289522 0.025486361 0.192 12682889
-0.0064260792 0.025486361 0.192 13274253
-0.0055232067 0.025486361 0.192 13669011
-0.0046203341 0.025486361 0.192 13537423
-0.0037174614 0.025486361 0.192 13537423
-0.0028292481 0.025619103 0.193 13603731
-0.001921673 0.025619103 0.193 13407384
-0.0010140978 0.025619103 0.193 10842999
-0.00010652265 0.025619103 0.193 12816276
0.00080105243 0.025619103 0.193 12748684
0.0017086277 0.025619103 0.193 12485512
0.0026162029 0.025619103 0.193 12879754
0.0035237779 0.025619103 0.193 12682375
0.004431353 0.025619103 0.193 12484996
0.0053389282 0.025619103 0.193 12945547
0.0062465039 0.025619103 0.193 13603477
0.0071540787 0.025619103 0.193 13142928
0.0080198841 0.025486361 0.192 13340307
0.0089227557 0.025486361 0.192 13274514
0.0098256283 0.025486361 0.192 13472407
0.010728502 0.025486361 0.192 13603991
0.011631373 0.025486361 0.192 12156547
0.012534246 0.025486361 0.192 11631232
0.013437119 0.025486361 0.192 12356242
0.01441468 0.025619103 0.193 12750998
0.015322255 0.025619103 0.193 12552588
0.016229829 0.025619103 0.193 12288133
0.017137405 0.025619103 0.193 12090752
0.01804498 0.025619103 0.193 13143440
0.018952556 0.025619103 0.193 13077647
0.01986013 0.025619103 0.193 12814475
0.020767706 0.025619103 0.193 13012624
0.021675281 0.025619103 0.193 13341591
0.022582857 0.025619103 0.193 12024961
0.023490431 0.025619103 0.193 12288133
0.024398006 0.025619103 0.193 12814475
0.025305582 0.025619103 0.193 12813961
0.026213158 0.025619103 0.193 12353410
0.02698021 0.025486361 0.192 12221311
0.027883084 0.025486361 0.192 11958141
0.028785953 0.025486361 0.192 12221313
0.029688828 0.025486361 0.192 12089725
0.0305917 0.025486361 0.192 11826553
0.031494573 0.025486361 0.192 11958139
0.032397445 0.025486361 0.192 12287104
0.033126883 0.025353622 0.19100001 12484483
0.034025054 0.025353622 0.19100001 12287619
0.034923222 0.025353622 0.19100001 12156547
0.035821389 0.025353622 0.19100001 12090752
0.036719561 0.025353622 0.19100001 12091776
0.037617732 0.025353622 0.19100001 12223362
0.038515903 0.025353622 0.19100001 11960190
0.039207716 0.02522088 0.19000001 11565691
0.040101185 0.02522088 0.19000001 11371394
-0.01735045 0.026526678 0.193 3488569
-0.016357679 0.026389236 0.192 3159604
-0.015374313 0.026251793 0.19100001 3488571
-0.014476144 0.026251793 0.19100001 3290940
-0.013577973 0.026251793 0.19100001 3028285
-0.012679802 0.026251793 0.19100001 2830906
-0.011843315 0.026389236 0.192 2960178
-0.010940443 0.026389236 0.192 6639441
-0.010089849 0.026526678 0.193 9529706
-0.0091822743 0.026526678 0.193 11304318
-0.0082746986 0.026526678 0.193 11501183
-0.0073671238 0.026526678 0.193 11630971
-0.0064595486 0.026526678 0.193 12353664
-0.0055519734 0.026526678 0.193 13010827
-0.0046443981 0.026526678 0.193 13340559
-0.0037368231 0.026526678 0.193 13669524
-0.0028439073 0.026664123 0.19400001 13406352
-0.0019316298 0.026664123 0.19400001 12880270
-0.0010193522 0.026664123 0.19400001 11697025
-0.00010707458 0.026664123 0.19400001 11893891
0.00080520299 0.026664123 0.19400001 11827328
0.0017174807 0.026664123 0.19400001 11893375
0.0026297583 0.026664123 0.19400001 12222340
0.0035420358 0.026664123 0.19400001 12222340
0.0044543133 0.026664123 0.19400001 12484998
0.0053665913 0.026664123 0.19400001 13076622
0.0062788692 0.026664123 0.19400001 13471380
0.0071911463 0.026664123 0.19400001 13274001
0.0080616539 0.026526678 0.193 13800343
0.0089692287 0.026526678 0.193 13668757
0.0098768035 0.026526678 0.193 12287617
0.010784379 0.026526678 0.193 12616582
0.011691954 0.026526678 0.193 11630201
0.012599529 0.026526678 0.193 11433594
0.013507104 0.026526678 0.193 11763851
0.014489368 0.026664123 0.19400001 12356754
0.015401646 0.026664123 0.19400001 12948116
0.016313922 0.026664123 0.19400001 12091783
0.017226201 0.026664123 0.19400001 11499133
0.018138478 0.026664123 0.19400001 11959938
0.019050756 0.026664123 0.19400001 12486282
0.019963032 0.026664123 0.19400001 12486282
0.020875311 0.026664123 0.19400001 12289416
0.021787588 0.026664123 0.19400001 12486795
0.022699866 0.026664123 0.19400001 12091783
0.023612143 0.026664123 0.19400001 11894145
0.02452442 0.026664123 0.19400001 12682889
0.025436699 0.026664123 0.19400001 12814475
0.026213158 0.026526678 0.193 12616582
0.027120734 0.026526678 0.193 12616582
0.028028307 0.026526678 0.193 12682375
0.028935881 0.026526678 0.193 12484996
0.029843457 0.026526678 0.193 11958654
0.030751033 0.026526678 0.193 11761273
0.031658608 0.026526678 0.193 11761273
0.032566182 0.026526678 0.193 12484998
0.033300318 0.026389236 0.192 12551305
0.03420319 0.026389236 0.192 12354696
0.035106063 0.026389236 0.192 11170168
0.036008935 0.026389236 0.192 11368314
0.036911808 0.026389236 0.192 11434107
0.03781468 0.026389236 0.192 11697279
0.038515903 0.026251793 0.19100001 11500416
0.039207716 0.026114348 0.19000001 10253433
-0.016442874 0.027434254 0.193 2830641
-0.015454805 0.027292108 0.192 2831156
-0.014551934 0.027292108 0.192 6911615
-0.013577973 0.027149964 0.19100001 5204079
-0.012746188 0.027292108 0.192 1455681
-0.011843315 0.027292108 0.192 3097422
-0.010940443 0.027292108 0.192 6642787
-0.010089849 0.027434254 0.193 6833994
-0.0091822743 0.027434254 0.193 10055280
-0.0084033217 0.027860694 0.19600001 10843767
-0.0074434676 0.027718548 0.19500001 11501181
-0.006493018 0.027576402 0.19400001 12092289
-0.00558074 0.027576402 0.19400001 12091006
-0.0046684626 0.027576402 0.19400001 12879754
-0.0037561848 0.027576402 0.19400001 13142926
-0.0028585668 0.027718548 0.19500001 13011594
-0.0019415867 0.027718548 0.19500001 12683143
-0.0010246066 0.027718548 0.19500001 12353924
-0.00010762651 0.027718548 0.19500001 12090752
0.00080935354 0.027718548 0.19500001 11827582
0.0017263338 0.027718548 0.19500001 11892607
0.0026433137 0.027718548 0.19500001 13669270
0.0035602937 0.027718548 0.19500001 13735063
0.0044772737 0.027718548 0.19500001 13669270
0.0053942539 0.027718548 0.19500001 13735063
0.0063112346 0.027718548 0.19500001 13669270
0.0072282143 0.027718548 0.19500001 13010827
0.0081034247 0.027576402 0.19400001 13076620
0.0090157017 0.027576402 0.19400001 12879241
0.0099279787 0.027576402 0.19400001 12748170
0.010840257 0.027576402 0.19400001 12221826
0.011752534 0.027576402 0.19400001 11827068
0.012664812 0.027576402 0.19400001 11893375
0.01357709 0.027576402 0.19400001 11435140
0.014564055 0.027718548 0.19500001 12028561
0.015481035 0.027718548 0.19500001 12750483
0.016398015 0.027718548 0.19500001 11894404
0.017314995 0.027718548 0.19500001 11301754
0.018231975 0.027718548 0.19500001 11827328
0.019148955 0.027718548 0.19500001 11894145
0.020065935 0.027718548 0.19500001 11631486
0.020982916 0.027718548 0.19500001 11499900
0.021899896 0.027718548 0.19500001 11828865
0.022816876 0.027718548 0.19500001 12025990
0.023733856 0.027718548 0.19500001 11960197
0.024650836 0.027718548 0.19500001 12486282
0.025567817 0.027718548 0.19500001 12486280
0.026348976 0.027576402 0.19400001 12682889
0.027261255 0.027576402 0.19400001 12814475
0.028318757 0.027718548 0.19500001 12617096
0.029085808 0.027576402 0.19400001 12353926
0.029998086 0.027576402 0.19400001 12353926
0.030910363 0.027576402 0.19400001 11827582
0.03182264 0.027576402 0.19400001 11433594
0.032734919 0.027576402 0.19400001 11104629
0.03347376 0.027434254 0.193 12026244
0.034381334 0.027434254 0.193 12027014
0.035288908 0.027434254 0.193 11960967
0.036196481 0.027434254 0.193 10974074
0.036911808 0.027292108 0.192 10908794
0.03781468 0.027292108 0.192 10120562
0.038515903 0.027149964 0.19100001 8149854
-0.011111388 0.028635528 0.19500001 2827822
-0.010089849 0.02834183 0.193 6770767
-0.0085319439 0.029222924 0.19900002 9199971
-0.0074816393 0.028782377 0.19600001 10449009
-0.0065599564 0.028782377 0.19600001 11435388
-0.0056382739 0.028782377 0.19600001 12158598
-0.004716591 0.028782377 0.19600001 12486280
-0.0037949085 0.028782377 0.19600001 12156545
-0.0028732261 0.028782377 0.19600001 12288131
-0.0019515436 0.028782377 0.19600001 12288131
-0.0010298609 0.028782377 0.19600001 12617096
-0.00010817844 0.028782377 0.19600001 12748170
0.0008135041 0.028782377 0.19600001 12156033
0.0017351868 0.028782377 0.19600001 12945549
0.0026568694 0.028782377 0.19600001 13274512
0.0035785518 0.028782377 0.19600001 13669270
0.0045002345 0.028782377 0.19600001 13669270
0.005421917 0.028782377 0.19600001 13340819
0.0063435999 0.028782377 0.19600001 13011854
0.0072652819 0.028782377 0.19600001 13011854
0.0081451945 0.028635528 0.19500001 12682375
0.0090621747 0.028635528 0.19500001 12748168
0.009979154 0.028635528 0.19500001 12813961
0.010896134 0.028635528 0.19500001 12616582
0.011813114 0.028635528 0.19500001 12024447
0.012730094 0.028635528 0.19500001 12156033
0.013647075 0.028635528 0.19500001 11566211
0.014638742 0.028782377 0.19600001 11502217
0.015560426 0.028782377 0.19600001 11500931
0.016482107 0.028782377 0.19600001 12157576
0.017403791 0.028782377 0.19600001 11631232
0.018325472 0.028782377 0.19600001 11433340
0.019247156 0.028782377 0.19600001 11433340
0.020168837 0.028782377 0.19600001 11499133
0.021090521 0.028782377 0.19600001 11499646
0.022012204 0.028782377 0.19600001 11499648
0.022933885 0.028782377 0.19600001 11433855
0.023855567 0.028782377 0.19600001 11960197
0.02477725 0.028782377 0.19600001 11697795
0.025567817 0.028635528 0.19500001 12157576
0.026484797 0.028635528 0.19500001 12552334
0.027401777 0.028635528 0.19500001 12749454
0.028318757 0.028635528 0.19500001 12749454
0.029235736 0.028635528 0.19500001 12091270
0.030152716 0.028635528 0.19500001 11038582
0.031069696 0.028635528 0.19500001 11565439
0.031986676 0.028635528 0.19500001 11631232
0.032903656 0.028635528 0.19500001 11697025
0.033647198 0.028488679 0.19400001 11236728
0.034559477 0.028488679 0.19400001 11105912
0.035471752 0.028488679 0.19400001 11237757
0.036196481 0.02834183 0.193 10711929
0.037104059 0.02834183 0.193 9988976
0.03781468 0.028194981 0.192 8807784
-0.0098483469 0.031371128 0.20700002 6966093
-0.0087463139 0.030916471 0.20400001 7754324
-0.0075198109 0.029855613 0.19700001 8937571
-0.0065934253 0.029855613 0.19700001 10450038
-0.0056958073 0.030007163 0.19800001 11436672
-0.0047647199 0.030007163 0.19800001 11370109
-0.0038336322 0.030007163 0.19800001 12421770
-0.0028878856 0.029855613 0.19700001 12684172
-0.0019615004 0.029855613 0.19700001 12683659
-0.0010351153 0.029855613 0.19700001 12552073
-0.00010873038 0.029855613 0.19700001 12090752
0.0008176546 0.029855613 0.19700001 12617096
0.0017440397 0.029855613 0.19700001 12748682
0.0026704248 0.029855613 0.19700001 12880268
0.0035968097 0.029855613 0.19700001 13406098
0.0045231949 0.029855613 0.19700001 13077647
0.0054495796 0.029855613 0.19700001 12353926
0.0063759652 0.029855613 0.19700001 12552075
0.0073023499 0.029855613 0.19700001 12354696
0.0081869652 0.02970406 0.19600001 12354696
0.0091086468 0.02970406 0.19600001 11630973
0.010030329 0.02970406 0.19600001 11827582
0.010952013 0.02970406 0.19600001 12484998
0.011873694 0.02970406 0.19600001 13076622
0.012795377 0.02970406 0.19600001 12484998
0.01371706 0.02970406 0.19600001 11960969
0.01471343 0.029855613 0.19700001 11436172
0.015639815 0.029855613 0.19700001 10908796
0.0165662 0.029855613 0.19700001 11697027
0.017492585 0.029855613 0.19700001 12420748
0.01841897 0.029855613 0.19700001 12815506
0.019345356 0.029855613 0.19700001 11696512
0.020271739 0.029855613 0.19700001 12025477
0.021198126 0.029855613 0.19700001 12684174
0.02212451 0.029855613 0.19700001 13013139
0.023050897 0.029855613 0.19700001 12027014
0.02397728 0.029855613 0.19700001 11895428
0.02477725 0.02970406 0.19600001 11434623
0.025698934 0.02970406 0.19600001 11763590
0.026756436 0.029855613 0.19700001 12420748
0.027542299 0.02970406 0.19600001 12486541
0.028463982 0.02970406 0.19600001 12289162
0.029385662 0.02970406 0.19600001 12091783
0.030307345 0.02970406 0.19600001 12289932
0.031229028 0.02970406 0.19600001 12026760
0.032150712 0.02970406 0.19600001 11368830
0.033072393 0.02970406 0.19600001 11698049
0.033820637 0.029552508 0.19500001 12159113
0.034737617 0.029552508 0.19500001 11370111
0.035471752 0.029400958 0.19400001 10515322
0.036384027 0.029400958 0.19400001 9069159
0.037296306 0.029400958 0.19400001 8281699
-0.012194037 0.033438314 0.21400002 2040355
-0.011239988 0.033594564 0.215 2366491
-0.010038652 0.032969549 0.21100001 6179144
-0.0089606848 0.032657042 0.20900001 6900298
-0.0066268947 0.030938251 0.19800001 9727600
-0.005724574 0.031094506 0.19900002 9793391
-0.0048128478 0.031250756 0.2 10253683
-0.0038723554 0.031250756 0.2 10910330
-0.0029172043 0.031094506 0.19900002 10843767
-0.0019714574 0.030938251 0.19800001 11895941
-0.0010403697 0.030938251 0.19800001 11895428
-0.00010928231 0.030938251 0.19800001 11959936
0.00082180515 0.030938251 0.19800001 12617866
0.0017528927 0.030938251 0.19800001 13077647
0.0026839804 0.030938251 0.19800001 12353924
0.0036150676 0.030938251 0.19800001 12288131
0.0045461552 0.030938251 0.19800001 12156545
0.0054772426 0.030938251 0.19800001 12222340
0.0064083305 0.030938251 0.19800001 11762559
0.0073394175 0.030938251 0.19800001 11433340
0.0082705058 0.030938251 0.19800001 11301754
0.0092015928 0.030938251 0.19800001 11762559
0.01013268 0.030938251 0.19800001 11696766
0.011063768 0.030938251 0.19800001 11893375
0.011934275 0.030781997 0.19700001 11893121
0.01286066 0.030781997 0.19700001 12748430
0.013787045 0.030781997 0.19700001 12420750
0.014788118 0.030938251 0.19800001 12225940
0.015719205 0.030938251 0.19800001 12027791
0.016650293 0.030938251 0.19800001 11829381
0.017581381 0.030938251 0.19800001 12355725
0.018512469 0.030938251 0.19800001 12289932
0.019443557 0.030938251 0.19800001 12553104
0.020374643 0.030938251 0.19800001 12618381
0.021305731 0.030938251 0.19800001 12354696
0.02212451 0.030781997 0.19700001 11894145
0.023050897 0.030781997 0.19700001 11499900
0.02397728 0.030781997 0.19700001 11631486
0.024903666 0.030781997 0.19700001 11565693
0.025830051 0.030781997 0.19700001 11698049
0.026756436 0.030781997 0.19700001 11895428
0.027823344 0.030938251 0.19800001 11829635
0.028754432 0.030938251 0.19800001 11829635
0.02953559 0.030781997 0.19700001 11763588
0.030461974 0.030781997 0.19700001 11566209
0.031388361 0.030781997 0.19700001 11698308
0.032314748 0.030781997 0.19700001 11435136
0.03324113 0.030781997 0.19700001 10382962
0.033994079 0.030625744 0.19600001 9857388
0.034737617 0.030469488 0.19500001 9265768
0.035654597 0.030469488 0.19500001 8937319
-0.012421962 0.035088465 0.21800001 1712160
-0.011344546 0.034927506 0.21700001 2105372
-0.010228959 0.034605592 0.215 2497302
-0.0091321813 0.034283683 0.21300001 6705486
-0.0082450714 0.034766551 0.21600001 6506310
-0.0058108736 0.032513164 0.20200001 9399149
-0.0048850407 0.032674119 0.20300001 9596012
-0.0039110789 0.032513164 0.20200001 11173761
-0.0029465226 0.032352205 0.20100001 11305347
-0.0019913709 0.03219125 0.2 11633801
-0.0010508785 0.03219125 0.2 11830408
-0.00011038617 0.03219125 0.2 11632769
0.00083010615 0.03219125 0.2 11828865
0.0017705987 0.03219125 0.2 12026244
0.002711091 0.03219125 0.2 11894145
0.0036515833 0.03219125 0.2 11696766
0.0045920755 0.03219125 0.2 11630973
0.0055325679 0.03219125 0.2 11565180
0.0064406958 0.032030296 0.19900002 11039349
0.0073764855 0.032030296 0.19900002 10578544
0.0083122756 0.032030296 0.19900002 11565693
0.0092480658 0.032030296 0.19900002 12157828
0.010183855 0.032030296 0.19900002 12486280
0.011119645 0.032030296 0.19900002 11894143
0.012055435 0.032030296 0.19900002 11630973
0.012991224 0.032030296 0.19900002 11499648
0.013927015 0.032030296 0.19900002 11435140
0.014862806 0.032030296 0.19900002 12620444
0.015798597 0.032030296 0.19900002 11568008
0.016734384 0.032030296 0.19900002 12026760
0.017670175 0.032030296 0.19900002 10908279
0.018605966 0.032030296 0.19900002 12224139
0.019541755 0.032030296 0.19900002 12290445
0.020477545 0.032030296 0.19900002 11961221
0.021413336 0.032030296 0.19900002 12026244
0.022349125 0.032030296 0.19900002 12026244
0.023284916 0.032030296 0.19900002 11960451
0.024220705 0.032030296 0.19900002 11828865
0.025156494 0.032030296 0.19900002 11697279
0.026092285 0.032030296 0.19900002 11500670
0.027028076 0.032030296 0.19900002 10777460
0.027963866 0.032030296 0.19900002 11369597
0.028899657 0.032030296 0.19900002 11764355
0.029835444 0.032030296 0.19900002 11698562
0.030616604 0.031869341 0.19800001 10580341
0.031547692 0.031869341 0.19800001 9857390
0.03247878 0.031869341 0.19800001 10121075
0.03324113 0.031708382 0.19700001 9858671
0.033994079 0.031547427 0.19600001 9529706
-0.011396824 0.036113597 0.21800001 1973790
-0.010324112 0.035947938 0.21700001 2170395
-0.0092608025 0.035782281 0.21600001 2497562
-0.0082832435 0.035947938 0.21700001 5324094
-0.0072293393 0.035782281 0.21600001 5980481
-0.0060410076 0.034788329 0.21000001 9992567
-0.0049572336 0.034125693 0.20600002 9268844
-0.0039498028 0.033794377 0.20400001 9135975
-0.0029758413 0.033628717 0.20300001 11306630
-0.0020112847 0.033463057 0.20200001 10977152
-0.0010613874 0.033463057 0.20200001 11173761
-0.00011149003 0.033463057 0.20200001 11239041
0.00083840726 0.033463057 0.20200001 11238271
0.0017883047 0.033463057 0.20200001 11435136
0.002738202 0.033463057 0.20200001 11632515
0.0036880991 0.033463057 0.20200001 11961480
0.0046379967 0.033463057 0.20200001 11829894
0.0055602309 0.033297397 0.20100001 11895687
0.0064730607 0.033131741 0.2 11698562
0.0074135526 0.033131741 0.2 11632769
0.0083540455 0.033131741 0.2 11961734
0.0092945378 0.033131741 0.2 11895941
0.010235029 0.033131741 0.2 11764353
0.011175523 0.033131741 0.2 11698560
0.012116014 0.033131741 0.2 11763842
0.013056506 0.033131741 0.2 11369084
0.013996999 0.033131741 0.2 11633029
0.014937492 0.033131741 0.2 11962766
0.015877984 0.033131741 0.2 11370629
0.016818477 0.033131741 0.2 11764101
0.017758969 0.033131741 0.2 11829894
0.018699462 0.033131741 0.2 11829894
0.019639954 0.033131741 0.2 11961480
0.020580446 0.033131741 0.2 12093066
0.021520939 0.033131741 0.2 11895687
0.022461431 0.033131741 0.2 11895687
0.023401923 0.033131741 0.2 11633029
0.024342416 0.033131741 0.2 11172732
0.025282908 0.033131741 0.2 11369597
0.026223401 0.033131741 0.2 10974837
0.027163893 0.033131741 0.2 10514288
0.028104385 0.033131741 0.2 10119530
0.02904488 0.033131741 0.2 9725032
0.029985368 0.033131741 0.2 10909308
0.030771235 0.032966085 0.19900002 10055282
0.031707026 0.032966085 0.19900002 9398122
0.03247878 0.032800425 0.19800001 9069670
0.033409867 0.032800425 0.19800001 8807782
0.034340955 0.032800425 0.19800001 8085603
-0.011396824 0.037138734 0.21800001 2829871
-0.010371689 0.037138734 0.21800001 2895664
-0.0093036769 0.036968373 0.21700001 3092014
-0.0082832435 0.036968373 0.21700001 3222830
-0.0072293393 0.036798012 0.21600001 3681071
-0.006098541 0.036116567 0.21200001 7626849
-0.005005362 0.035435122 0.208 10060415
-0.0039691646 0.034924041 0.20500001 10322815
-0.0029905008 0.03475368 0.20400001 10715777
-0.0020311985 0.03475368 0.20400001 11110535
-0.0010666418 0.034583319 0.20300001 11109765
-0.00011204195 0.034583319 0.20300001 11109765
0.00084255781 0.034583319 0.20300001 11371910
0.0017971577 0.034583319 0.20300001 11306117
0.0027517574 0.034583319 0.20300001 11568519
0.0037063572 0.034583319 0.20300001 11502726
0.004660957 0.034583319 0.20300001 11436933
0.005587894 0.034412954 0.20200001 11436420
0.006505426 0.034242593 0.20100001 11041662
0.0074506206 0.034242593 0.20100001 10975869
0.0083958162 0.034242593 0.20100001 10974839
0.0093410108 0.034242593 0.20100001 11435390
0.010286205 0.034242593 0.20100001 10712181
0.0112314 0.034242593 0.20100001 10646388
0.012176595 0.034242593 0.20100001 10712181
0.013121789 0.034242593 0.20100001 11238525
0.014066984 0.034242593 0.20100001 10909560
0.01501218 0.034242593 0.20100001 10581113
0.015957374 0.034242593 0.20100001 11239041
0.016902568 0.034242593 0.20100001 11961994
0.017847763 0.034242593 0.20100001 11369857
0.018792959 0.034242593 0.20100001 11172478
0.019738154 0.034242593 0.20100001 10975869
0.020683348 0.034242593 0.20100001 11239041
0.021628544 0.034242593 0.20100001 10317939
0.022573739 0.034242593 0.20100001 10712697
0.023518933 0.034242593 0.20100001 10713212
0.024464127 0.034242593 0.20100001 10844798
0.025409322 0.034242593 0.20100001 10646906
0.026354518 0.034242593 0.20100001 10252146
0.027299713 0.034242593 0.20100001 10252146
0.028244909 0.034242593 0.20100001 10186353
0.029190104 0.034242593 0.20100001 9660011
0.029985368 0.034072232 0.2 9463915
0.030925861 0.034072232 0.2 9201770
0.031866353 0.034072232 0.2 8150367
0.032806847 0.034072232 0.2 7690845
0.033578604 0.033901874 0.19900002 6113359
-0.010371689 0.038163871 0.21800001 2896436
-0.0093465513 0.038163871 0.21800001 2896436
-0.0083214147 0.038163871 0.21800001 3291194
-0.0072628087 0.037988808 0.21700001 3881789
-0.0061273077 0.037288554 0.21300001 4342083
-0.0050534904 0.036763363 0.21000001 4602175
-0.004007888 0.036238175 0.20700002 5652034
-0.00300516 0.035888046 0.20500001 10191233
-0.0020411552 0.035888046 0.20500001 10650499
-0.0010718962 0.03571298 0.20400001 11242634
-0.00011259389 0.03571298 0.20400001 11044742
0.00084670831 0.03571298 0.20400001 11307914
0.0018060107 0.03571298 0.20400001 11438984
0.002765313 0.03571298 0.20400001 11241091
0.0037246151 0.03571298 0.20400001 11109505
0.0046839174 0.03571298 0.20400001 10780286
0.0056155566 0.035537917 0.20300001 10385528
0.0065377913 0.035362855 0.20200001 10121843
0.0074506206 0.035187788 0.20100001 10450038
0.0083958162 0.035187788 0.20100001 10712697
0.0093410108 0.035187788 0.20100001 10581111
0.010286205 0.035187788 0.20100001 10120560
0.0112314 0.035187788 0.20100001 10515318
0.012176595 0.035187788 0.20100001 10778490
0.013121789 0.035187788 0.20100001 11568006
0.014066984 0.035187788 0.20100001 11041664
0.01501218 0.035187788 0.20100001 10253179
