# .PCD v0.7 - Point Cloud Data file format
VERSION 0.7
FIELDS x y z rgb
SIZE 4 4 4 4
TYPE F F F U
COUNT 1 1 1 1
WIDTH 1094
HEIGHT 1
VIEWPOINT 0 0 0 1 0 0 0
POINTS 1094
DATA ascii
-0.0041627823 0.006296772 0.215 12623526
-0.003151753 0.006296772 0.215 12953004
-0.0021407236 0.006296772 0.215 13081760
-0.0011349488 0.0063260598 0.21600001 11632515
-0.00011921705 0.0063260598 0.21600001 11305601
0.00089651468 0.0063260598 0.21600001 11176582
0.0019210996 0.0063553471 0.21700001 10388349
0.0029415339 0.0063553471 0.21700001 10257022
0.0039619678 0.0063553471 0.21700001 10848646
0.0050053624 0.0063846344 0.21800001 10980232
0.0060304995 0.0063846344 0.21800001 11178124
0.0070556365 0.0063846344 0.21800001 11112331
0.0081178406 0.0064139217 0.21900001 11046538
0.0091476804 0.0064139217 0.21900001 10717573
0.010223992 0.006443209 0.22000001 10915722
0.011258533 0.006443209 0.22000001 10784136
0.012293075 0.006443209 0.22000001 11113101
0.013327616 0.006443209 0.22000001 11046538
0.014362157 0.006443209 0.22000001 10454401
0.0153967 0.006443209 0.22000001 10454403
0.016431242 0.006443209 0.22000001 10323587
0.017465783 0.006443209 0.22000001 9929343
0.018500324 0.006443209 0.22000001 8088424
0.019534867 0.006443209 0.22000001 6904409
0.020569408 0.006443209 0.22000001 5787212
0.02170215 0.0064724963 0.22100002 5590348
0.022741394 0.0064724963 0.22100002 4866625
0.023780638 0.0064724963 0.22100002 10387577
0.024819883 0.0064724963 0.22100002 9202022
0.025859127 0.0064724963 0.22100002 8085340
0.026898371 0.0064724963 0.22100002 7100246
-0.015505717 0.0061861388 0.18200001 9606022
-0.013138679 0.0072398218 0.21300001 8951188
-0.012194037 0.0072738118 0.21400002 9737109
-0.011239988 0.0073078009 0.215 11440783
-0.010228959 0.0073078009 0.215 14525345
-0.0092179291 0.0073078009 0.215 14917021
-0.0082069002 0.0073078009 0.215 14060169
-0.0071958699 0.0073078009 0.215 15571355
-0.006184841 0.0073078009 0.215 15111320
-0.0051738117 0.0073078009 0.215 15772852
-0.0041627823 0.0073078009 0.215 16773880
-0.0031664125 0.0073417909 0.21600001 16775161
-0.0021506806 0.0073417909 0.21600001 11960969
-0.0011349488 0.0073417909 0.21600001 12415867
-0.00011921705 0.0073417909 0.21600001 12284533
0.00089651468 0.0073417909 0.21600001 11235695
0.0019210996 0.007375781 0.21700001 11238009
0.0029415339 0.007375781 0.21700001 11501695
0.0039619678 0.007375781 0.21700001 11960449
0.0050053624 0.0074097705 0.21800001 11434105
0.0060304995 0.0074097705 0.21800001 11499898
0.0070556365 0.0074097705 0.21800001 11763840
0.0081178406 0.0074437605 0.21900001 11106937
0.0091476804 0.0074437605 0.21900001 10976634
0.010223992 0.0074777505 0.22000001 9926513
0.011258533 0.0074777505 0.22000001 9136999
0.012293075 0.0074777505 0.22000001 10188917
0.013327616 0.0074777505 0.22000001 10451575
0.014362157 0.0074777505 0.22000001 10582648
0.0153967 0.0074777505 0.22000001 10910843
0.016431242 0.0074777505 0.22000001 11042429
0.017465783 0.0074777505 0.22000001 10713464
0.018500324 0.0074777505 0.22000001 10845048
0.019623661 0.0075117401 0.22100002 10910841
0.020662906 0.0075117401 0.22100002 10647671
0.02170215 0.0075117401 0.22100002 10844796
0.022741394 0.0075117401 0.22100002 9989491
0.023780638 0.0075117401 0.22100002 10645109
0.024819883 0.0075117401 0.22100002 10907763
0.025859127 0.0075117401 0.22100002 10381937
0.026898371 0.0075117401 0.22100002 10579829
0.027937615 0.0075117401 0.22100002 10514036
0.02897686 0.0075117401 0.22100002 11503498
0.030016104 0.0075117401 0.22100002 9859188
0.031055348 0.0075117401 0.22100002 9464944
0.032239817 0.0075457301 0.22200002 10057851
-0.015846502 0.0071967561 0.186 2894635
-0.014971843 0.0071967561 0.186 3947582
-0.013945605 0.007119372 0.18400002 3224629
-0.013138679 0.0082414467 0.21300001 3881534
-0.012194037 0.0082801394 0.21400002 7691615
-0.011239988 0.0083188312 0.215 13144977
-0.010228959 0.0083188312 0.215 13009026
-0.0092179291 0.0083188312 0.215 14256265
-0.0082069002 0.0083188312 0.215 16031906
-0.0071958699 0.0083188312 0.215 15636891
-0.006184841 0.0083188312 0.215 16294051
-0.0051738117 0.0083188312 0.215 14849956
-0.0041627823 0.0083188312 0.215 16772598
-0.0031664125 0.008357523 0.21600001 16775161
-0.0021506806 0.008357523 0.21600001 14988476
-0.0011349488 0.008357523 0.21600001 13271946
-0.00011921705 0.008357523 0.21600001 12546165
0.00089651468 0.008357523 0.21600001 12285303
0.0019210996 0.0083962157 0.21700001 12616584
0.0029415339 0.0083962157 0.21700001 12550530
0.0039619678 0.0083962157 0.21700001 12746622
0.0050053624 0.0084349075 0.21800001 12615038
0.0060304995 0.0084349075 0.21800001 11759731
0.0070556365 0.0084349075 0.21800001 13272198
0.0081178406 0.0084736003 0.21900001 12944003
0.0091476804 0.0084736003 0.21900001 10973808
0.010177519 0.0084736003 0.21900001 10451573
0.011207358 0.0084736003 0.21900001 10122095
0.012293075 0.0085122921 0.22000001 11630971
0.013327616 0.0085122921 0.22000001 11893627
0.014362157 0.0085122921 0.22000001 11893627
0.0153967 0.0085122921 0.22000001 11762041
0.016431242 0.0085122921 0.22000001 11958904
0.017465783 0.0085122921 0.22000001 12222074
0.018500324 0.0085122921 0.22000001 11564146
0.019623661 0.0085509848 0.22100002 11170933
0.020662906 0.0085509848 0.22100002 10449275
0.02170215 0.0085509848 0.22100002 10518663
0.022741394 0.0085509848 0.22100002 16775417
0.023780638 0.0085509848 0.22100002 16769518
0.024932191 0.0085896775 0.22200002 15446463
0.025976136 0.0085896775 0.22200002 14920371
0.027020082 0.0085896775 0.22200002 13471639
0.028064029 0.0085896775 0.22200002 10972019
0.029107977 0.0085896775 0.22200002 16773102
0.030151924 0.0085896775 0.22200002 16776439
0.031195872 0.0085896775 0.22200002 16774645
0.03238504 0.0086283684 0.223 15315129
0.033433687 0.0086283684 0.223 14194853
0.034482338 0.0086283684 0.223 11433090
0.035530984 0.0086283684 0.223 13801122
0.036743671 0.0086670611 0.22400001 14064030
-0.016016895 0.0081582032 0.18800001 2764078
-0.01513283 0.0081582032 0.18800001 2894892
-0.014172978 0.0081148082 0.18700001 2697513
-0.013138679 0.0092430711 0.21300001 3484719
-0.012194037 0.0092864661 0.21400002 12750996
-0.011239988 0.0093298601 0.215 12418172
-0.010228959 0.0093298601 0.215 13863565
-0.0092179291 0.0093298601 0.215 12743026
-0.0082069002 0.0093298601 0.215 14122882
-0.0071958699 0.0093298601 0.215 12674151
-0.006184841 0.0093298601 0.215 13266288
-0.0051738117 0.0093298601 0.215 13465725
-0.0041627823 0.0093298601 0.215 16759234
-0.0031664125 0.0093732541 0.21600001 16772085
-0.0021506806 0.0093732541 0.21600001 16762574
-0.0011349488 0.0093732541 0.21600001 13731722
-0.00011921705 0.0093732541 0.21600001 13202553
0.00089651468 0.0093732541 0.21600001 12021104
0.0019210996 0.0094166491 0.21700001 13403532
0.0029415339 0.0094166491 0.21700001 15376554
0.0039619678 0.0094166491 0.21700001 16561850
0.0050053624 0.0094600441 0.21800001 16773614
0.0060304995 0.0094600441 0.21800001 16768481
0.0070556365 0.0094600441 0.21800001 13403532
0.0081178406 0.0095034391 0.21900001 13533321
0.0091476804 0.0095034391 0.21900001 12223108
0.010177519 0.0095034391 0.21900001 12226188
0.011207358 0.0095034391 0.21900001 11565691
0.012293075 0.009546834 0.22000001 14062232
0.013327616 0.009546834 0.22000001 15511224
0.014362157 0.009546834 0.22000001 16500949
0.0153967 0.009546834 0.22000001 15053751
0.016431242 0.009546834 0.22000001 14062999
0.017465783 0.009546834 0.22000001 13405835
0.018500324 0.009546834 0.22000001 16762305
0.019623661 0.0095902281 0.22100002 16041414
0.020662906 0.0095902281 0.22100002 16773881
0.02170215 0.0095902281 0.22100002 16776955
0.022741394 0.0095902281 0.22100002 16777211
0.023780638 0.0095902281 0.22100002 16773622
0.024932191 0.0096336231 0.22200002 15973059
0.025976136 0.0096336231 0.22200002 16365248
0.027020082 0.0096336231 0.22200002 15773885
0.028064029 0.0096336231 0.22200002 12948893
0.029107977 0.0096336231 0.22200002 16776183
0.030151924 0.0096336231 0.22200002 16777209
0.031336389 0.0096770171 0.223 16774904
0.03238504 0.0096770171 0.223 15312560
0.033433687 0.0096770171 0.223 16560574
0.034482338 0.0096770171 0.223 16761037
0.035690319 0.0097204121 0.22400001 16100793
0.036743671 0.0097204121 0.22400001 14261409
0.037797023 0.0097204121 0.22400001 16702690
0.038850375 0.0097204121 0.22400001 15323866
0.039903726 0.0097204121 0.22400001 14072002
0.040957075 0.0097204121 0.22400001 9858423
-0.01610209 0.009090364 0.18900001 2368548
-0.015293819 0.0091384612 0.19000001 2565929
-0.014400352 0.0091384612 0.19000001 2565929
-0.013076995 0.010196598 0.21200001 3482660
-0.012194037 0.010292793 0.21400002 13077647
-0.011239988 0.01034089 0.215 13205633
-0.010228959 0.01034089 0.215 12612469
-0.0092179291 0.01034089 0.215 13202807
-0.0082069002 0.01034089 0.215 12674921
-0.0071958699 0.01034089 0.215 12542819
-0.006184841 0.01034089 0.215 13332333
-0.0051738117 0.01034089 0.215 13004140
-0.0041627823 0.01034089 0.215 15242908
-0.0031664125 0.010388987 0.21600001 12876936
-0.0021506806 0.010388987 0.21600001 12812426
-0.0011349488 0.010388987 0.21600001 11955563
-0.00011921705 0.010388987 0.21600001 13005169
0.00089651468 0.010388987 0.21600001 11165025
0.0019210996 0.010437084 0.21700001 13271696
0.0029415339 0.010437084 0.21700001 12088192
0.0039619678 0.010437084 0.21700001 13930396
0.0050053624 0.010485182 0.21800001 16773620
0.0060304995 0.010485182 0.21800001 16774135
0.0070556365 0.010485182 0.21800001 16166840
0.0081178406 0.010533279 0.21900001 14915744
0.0091476804 0.010533279 0.21900001 12748682
0.010177519 0.010533279 0.21900001 12553610
0.011207358 0.010533279 0.21900001 14261148
0.012237198 0.010533279 0.21900001 13733267
0.013267037 0.010533279 0.21900001 16767458
0.014362157 0.010581376 0.22000001 16775675
0.0153967 0.010581376 0.22000001 16774901
0.016431242 0.010581376 0.22000001 14658732
0.017465783 0.010581376 0.22000001 16767708
0.018500324 0.010581376 0.22000001 15775678
0.019623661 0.010629473 0.22100002 15843269
0.020662906 0.010629473 0.22100002 16774901
0.02170215 0.010629473 0.22100002 16711675
0.022741394 0.010629473 0.22100002 16777211
0.023780638 0.010629473 0.22100002 16773616
0.024932191 0.01067757 0.22200002 16562881
0.025976136 0.01067757 0.22200002 16759748
0.027020082 0.01067757 0.22200002 16364739
0.028190443 0.010725667 0.223 13146539
0.029239092 0.010725667 0.223 16775419
0.030287741 0.010725667 0.223 16776439
0.031336389 0.010725667 0.223 16772328
0.03238504 0.010725667 0.223 15112353
0.033433687 0.010725667 0.223 15504801
0.034636967 0.010773764 0.22400001 14912921
0.035690319 0.010773764 0.22400001 15769772
0.036743671 0.010773764 0.22400001 14133167
0.037797023 0.010773764 0.22400001 16776955
0.038850375 0.010773764 0.22400001 16776955
0.039903726 0.010773764 0.22400001 16773627
0.040957075 0.010773764 0.22400001 15909326
0.042010427 0.010773764 0.22400001 14592691
0.043256026 0.010821861 0.22500001 13739177
-0.015454805 0.010137527 0.192 2105380
-0.014627726 0.010190327 0.193 2237736
-0.013862328 0.010295927 0.19500001 2434341
-0.013076995 0.01119352 0.21200001 3941666
-0.012194037 0.011299119 0.21400002 11695994
-0.011239988 0.011351919 0.215 13008001
-0.010228959 0.011351919 0.215 13073022
-0.0092179291 0.011351919 0.215 14715535
-0.0082069002 0.011351919 0.215 12806768
-0.0071958699 0.011351919 0.215 13990783
-0.006184841 0.011351919 0.215 13727611
-0.0051738117 0.011351919 0.215 13728892
-0.0041627823 0.011351919 0.215 12678003
-0.0031664125 0.011404718 0.21600001 11954807
-0.0021506806 0.011404718 0.21600001 11495287
-0.0011349488 0.011404718 0.21600001 11691371
-0.00011921705 0.011404718 0.21600001 11492957
0.00089651468 0.011404718 0.21600001 11099234
0.0019210996 0.011457518 0.21700001 13472927
0.0029415339 0.011457518 0.21700001 11892096
0.0039619678 0.011457518 0.21700001 12284281
0.0050053624 0.011510317 0.21800001 16233149
0.0060304995 0.011510317 0.21800001 16035254
0.0070556365 0.011510317 0.21800001 14586263
0.0081178406 0.011563118 0.21900001 14588830
0.0091476804 0.011563118 0.21900001 13210003
0.010177519 0.011563118 0.21900001 16367299
0.011207358 0.011563118 0.21900001 16233655
0.012237198 0.011563118 0.21900001 15971775
0.013267037 0.011563118 0.21900001 16306137
0.014362157 0.011615917 0.22000001 16776187
0.0153967 0.011615917 0.22000001 16774132
0.016431242 0.011615917 0.22000001 16764631
0.017465783 0.011615917 0.22000001 16763604
0.018500324 0.011615917 0.22000001 13865886
0.019623661 0.011668717 0.22100002 13472675
0.020662906 0.011668717 0.22100002 16772084
0.02170215 0.011668717 0.22100002 16776953
0.022741394 0.011668717 0.22100002 16775919
0.023780638 0.011668717 0.22100002 16770529
0.024932191 0.011721517 0.22200002 14455702
0.025976136 0.011721517 0.22200002 14783638
0.027020082 0.011721517 0.22200002 15573926
0.028190443 0.011774315 0.223 12614016
0.029239092 0.011774315 0.223 13207436
0.030287741 0.011774315 0.223 16498360
0.031336389 0.011774315 0.223 16164512
0.03238504 0.011774315 0.223 15898778
0.033433687 0.011774315 0.223 14911883
0.034636967 0.011827115 0.22400001 14780045
0.035690319 0.011827115 0.22400001 14256013
0.036743671 0.011827115 0.22400001 15780554
0.037797023 0.011827115 0.22400001 16777207
0.038850375 0.011827115 0.22400001 16776699
0.039903726 0.011827115 0.22400001 16044762
0.040957075 0.011827115 0.22400001 15512508
0.042197973 0.011879915 0.22500001 16763598
0.043256026 0.011879915 0.22500001 16762571
0.044314083 0.011879915 0.22500001 16236483
-0.0155353 0.011097902 0.193 3155241
-0.014779308 0.011212907 0.19500001 2235422
-0.014075595 0.011385413 0.19800001 2498594
-0.013138679 0.012247944 0.21300001 4466729
-0.012194037 0.012305447 0.21400002 14064542
-0.011239988 0.012362949 0.215 14454162
-0.010228959 0.012362949 0.215 13334911
-0.0092179291 0.012362949 0.215 13992071
-0.0082069002 0.012362949 0.215 13399675
-0.0071958699 0.012362949 0.215 14056322
-0.006184841 0.012362949 0.215 13727357
-0.0051738117 0.012362949 0.215 13728640
-0.0041821441 0.01242045 0.21600001 11557982
-0.0031664125 0.01242045 0.21600001 10968418
-0.0021506806 0.01242045 0.21600001 11823221
-0.0011349488 0.01242045 0.21600001 11428715
-0.00011921705 0.01242045 0.21600001 10572888
0.00089651468 0.01242045 0.21600001 10246240
0.0019210996 0.012477953 0.21700001 12352657
0.0029415339 0.012477953 0.21700001 10707822
0.0039619678 0.012477953 0.21700001 11626351
0.0050053624 0.012535455 0.21800001 12086902
0.0060304995 0.012535455 0.21800001 12744575
0.0070556365 0.012535455 0.21800001 12020852
0.0081178406 0.012592957 0.21900001 13142928
0.0091476804 0.012592957 0.21900001 14065573
0.010177519 0.012592957 0.21900001 12682123
0.011207358 0.012592957 0.21900001 12810627
0.012237198 0.012592957 0.21900001 12284799
0.013267037 0.012592957 0.21900001 16766946
0.014362157 0.012650459 0.22000001 16771570
0.0153967 0.012650459 0.22000001 16764377
0.016431242 0.012650459 0.22000001 10772843
0.017465783 0.012650459 0.22000001 10641511
0.018500324 0.012650459 0.22000001 11496566
0.019623661 0.012707962 0.22100002 10642542
0.020662906 0.012707962 0.22100002 16565194
0.02170215 0.012707962 0.22100002 16768214
0.022741394 0.012707962 0.22100002 9656149
0.023780638 0.012707962 0.22100002 8274244
0.024932191 0.012765463 0.22200002 8340037
0.025976136 0.012765463 0.22200002 7747900
0.027141793 0.012822965 0.223 8537416
0.028190443 0.012822965 0.223 8734282
0.029239092 0.012822965 0.223 8865350
0.030287741 0.012822965 0.223 9653835
0.031336389 0.012822965 0.223 12284010
0.032530263 0.012880467 0.22400001 13203057
0.033583615 0.012880467 0.22400001 14123904
0.034636967 0.012880467 0.22400001 13992321
0.035690319 0.012880467 0.22400001 13468548
0.036907703 0.01293797 0.22500001 16234166
0.03796576 0.01293797 0.22500001 16774640
0.039023813 0.01293797 0.22500001 16773870
0.040081866 0.01293797 0.22500001 16765393
0.041139919 0.01293797 0.22500001 16757682
0.042197973 0.01293797 0.22500001 16230055
0.043256026 0.01293797 0.22500001 16558766
0.044314083 0.01293797 0.22500001 16230573
0.045372136 0.01293797 0.22500001 14985644
0.046430189 0.01293797 0.22500001 8414820
0.047488246 0.01293797 0.22500001 5195590
-0.015857276 0.012254296 0.19700001 9341066
-0.014930891 0.012254296 0.19700001 10918554
-0.014431039 0.012627522 0.20300001 5852493
-0.013874757 0.01300075 0.20900001 3088417
-0.013138679 0.013249569 0.21300001 6109499
-0.012251017 0.013373978 0.215 11959684
-0.011239988 0.013373978 0.215 14719646
-0.010276536 0.013436181 0.21600001 14521238
-0.0092608025 0.013436181 0.21600001 13730439
-0.0082450714 0.013436181 0.21600001 16758974
-0.0072293393 0.013436181 0.21600001 16758717
-0.0062136077 0.013436181 0.21600001 16756919
-0.0051978757 0.013436181 0.21600001 13662077
-0.0041821441 0.013436181 0.21600001 13269888
-0.0031664125 0.013436181 0.21600001 16770534
-0.0021506806 0.013436181 0.21600001 16768739
-0.0011349488 0.013436181 0.21600001 12612473
-0.00011921705 0.013436181 0.21600001 13073794
0.00089651468 0.013436181 0.21600001 11366004
0.0019210996 0.013498386 0.21700001 13538466
0.0029415339 0.013498386 0.21700001 10905462
0.0039619678 0.013498386 0.21700001 15577017
0.0050053624 0.013560591 0.21800001 16039363
0.0060304995 0.013560591 0.21800001 14063776
0.0070556365 0.013560591 0.21800001 12813196
0.0081178406 0.013622796 0.21900001 11895176
0.0091476804 0.013622796 0.21900001 12223110
0.010177519 0.013622796 0.21900001 12549247
0.011207358 0.013622796 0.21900001 11823984
0.012237198 0.013622796 0.21900001 12086904
0.013267037 0.013622796 0.21900001 12023684
0.014362157 0.013685 0.22000001 11300220
0.0153967 0.013685 0.22000001 11824248
0.016431242 0.013685 0.22000001 11955311
0.017465783 0.013685 0.22000001 10837859
0.018500324 0.013685 0.22000001 11759992
0.019623661 0.013747205 0.22100002 11759740
0.020662906 0.013747205 0.22100002 7943233
0.02170215 0.013747205 0.22100002 5970474
0.022741394 0.013747205 0.22100002 5051421
0.023780638 0.013747205 0.22100002 5313821
0.024932191 0.01380941 0.22200002 5576993
0.025976136 0.01380941 0.22200002 5379866
0.027141793 0.013871614 0.223 5182487
0.028190443 0.013871614 0.223 5182487
0.029239092 0.013871614 0.223 5117718
0.030287741 0.013871614 0.223 5116946
0.031476911 0.013933818 0.22400001 4854026
0.032530263 0.013933818 0.22400001 4984585
0.033583615 0.013933818 0.22400001 5114888
0.034636967 0.013933818 0.22400001 5246220
0.035690319 0.013933818 0.22400001 6034198
0.036907703 0.013996023 0.22500001 8073781
0.03796576 0.013996023 0.22500001 11035238
0.039023813 0.013996023 0.22500001 14192532
0.040081866 0.013996023 0.22500001 13400956
0.041139919 0.013996023 0.22500001 13992323
0.042197973 0.013996023 0.22500001 14847375
0.043256026 0.013996023 0.22500001 15044754
0.044314083 0.013996023 0.22500001 16032422
0.045372136 0.013996023 0.22500001 14981019
0.046430189 0.013996023 0.22500001 15379627
0.047699302 0.014058228 0.22600001 11107707
-0.014644306 0.013782844 0.20600002 4339517
-0.013941144 0.014050472 0.21000001 9796993
-0.013200363 0.0143181 0.21400002 11635597
-0.012251017 0.014385006 0.215 10382187
-0.011292267 0.014451914 0.21600001 11957621
-0.010276536 0.014451914 0.21600001 14588828
-0.0092608025 0.014451914 0.21600001 14389909
-0.0082450714 0.014451914 0.21600001 15967401
-0.0072628087 0.014518821 0.21700001 16493493
-0.0062423744 0.014518821 0.21700001 16559288
-0.0052219401 0.014518821 0.21700001 16756923
-0.0042015058 0.014518821 0.21700001 14718624
-0.0031810717 0.014518821 0.21700001 16772595
-0.0021606374 0.014518821 0.21700001 16772336
-0.0011349488 0.014451914 0.21600001 14062493
-0.00011976899 0.014518821 0.21700001 14060435
0.00090066524 0.014518821 0.21700001 13470608
0.0019210996 0.014518821 0.21700001 15051439
0.0029415339 0.014518821 0.21700001 14325919
0.0039619678 0.014518821 0.21700001 16765147
0.0050053624 0.014585728 0.21800001 16765399
0.0060304995 0.014585728 0.21800001 16767712
0.0070556365 0.014585728 0.21800001 12486541
0.0081178406 0.014652635 0.21900001 14722990
0.0091476804 0.014652635 0.21900001 14261409
0.010177519 0.014652635 0.21900001 14128279
0.011207358 0.014652635 0.21900001 13863567
0.012237198 0.014652635 0.21900001 16762830
0.013267037 0.014652635 0.21900001 16765403
0.014362157 0.014719542 0.22000001 14326439
0.0153967 0.014719542 0.22000001 12812680
0.016431242 0.014719542 0.22000001 13075591
0.017465783 0.014719542 0.22000001 13337993
0.018500324 0.014719542 0.22000001 12483200
0.019623661 0.014786449 0.22100002 11431027
0.020662906 0.014786449 0.22100002 13865114
0.02170215 0.014786449 0.22100002 11564158
0.022741394 0.014786449 0.22100002 12091783
0.023780638 0.014786449 0.22100002 10906226
0.024932191 0.014853356 0.22200002 6629935
0.025976136 0.014853356 0.22200002 6300454
0.027141793 0.014920262 0.223 7024177
0.028190443 0.014920262 0.223 5181975
0.029370209 0.014987169 0.22400001 4853524
0.030287741 0.014920262 0.223 4920337
0.031476911 0.014987169 0.22400001 4657676
0.032530263 0.014987169 0.22400001 4723469
0.033583615 0.014987169 0.22400001 4722956
0.034636967 0.014987169 0.22400001 4919565
0.035849649 0.015054076 0.22500001 5050891
0.036907703 0.015054076 0.22500001 5379343
0.03796576 0.015054076 0.22500001 5771794
0.039023813 0.015054076 0.22500001 6033423
0.040081866 0.015054076 0.22500001 8399916
0.041139919 0.015054076 0.22500001 12149090
0.042197973 0.015054076 0.22500001 11886688
0.043256026 0.015054076 0.22500001 12873583
0.044314083 0.015054076 0.22500001 12150119
0.045372136 0.015054076 0.22500001 12611188
0.046430189 0.015054076 0.22500001 14389654
0.047699302 0.015120983 0.22600001 13078930
-0.013200363 0.015324427 0.21400002 6505540
-0.012251017 0.015396035 0.215 8805206
-0.011344546 0.015539255 0.21700001 13079182
-0.010324112 0.015539255 0.21700001 12682627
-0.0093036769 0.015539255 0.21700001 13601163
-0.0082832435 0.015539255 0.21700001 16296881
-0.0072962777 0.015610864 0.21800001 16762325
-0.0062711411 0.015610864 0.21800001 16759756
-0.0052460046 0.015610864 0.21800001 16427702
-0.0042208675 0.015610864 0.21800001 15967664
-0.0031957312 0.015610864 0.21800001 16771568
-0.0021705944 0.015610864 0.21800001 16773106
-0.0011402032 0.015539255 0.21700001 16627389
-0.00011976899 0.015539255 0.21700001 15244961
0.00090066524 0.015539255 0.21700001 14720927
0.0019210996 0.015539255 0.21700001 15182761
0.0029550893 0.015610864 0.21800001 15640744
0.0039802259 0.015610864 0.21800001 16100527
0.0050053624 0.015610864 0.21800001 16766163
0.0060304995 0.015610864 0.21800001 16770273
0.0070556365 0.015610864 0.21800001 13541026
0.0081178406 0.015682474 0.21900001 13803171
0.0091476804 0.015682474 0.21900001 15050410
0.010177519 0.015682474 0.21900001 15968943
0.011207358 0.015682474 0.21900001 15705512
0.012237198 0.015682474 0.21900001 14850205
0.013267037 0.015682474 0.21900001 16768999
0.014362157 0.015754083 0.22000001 16769772
0.0153967 0.015754083 0.22000001 13930646
0.016431242 0.015754083 0.22000001 14192532
0.017465783 0.015754083 0.22000001 14652824
0.018500324 0.015754083 0.22000001 14850203
0.019623661 0.015825693 0.22100002 13994899
0.020662906 0.015825693 0.22100002 16765915
0.02170215 0.015825693 0.22100002 16767970
0.022741394 0.015825693 0.22100002 13996700
0.023780638 0.015825693 0.22100002 12877960
0.024932191 0.015897304 0.22200002 12154235
0.025976136 0.015897304 0.22200002 12878212
0.027141793 0.015968911 0.223 13075852
0.028190443 0.015968911 0.223 13537948
0.029239092 0.015968911 0.223 8604756
0.030423561 0.016040521 0.22400001 5050901
0.031617437 0.01611213 0.22500001 4919569
0.03267549 0.01611213 0.22500001 4722956
0.033733539 0.01611213 0.22500001 4657163
0.034791596 0.01611213 0.22500001 4787979
0.035849649 0.01611213 0.22500001 5117198
0.036907703 0.01611213 0.22500001 5379856
0.03796576 0.01611213 0.22500001 5180940
0.039023813 0.01611213 0.22500001 5442833
0.040081866 0.01611213 0.22500001 5769484
0.041139919 0.01611213 0.22500001 7148822
0.042197973 0.01611213 0.22500001 9386554
0.043256026 0.01611213 0.22500001 11228758
0.044314083 0.01611213 0.22500001 11755104
0.045372136 0.01611213 0.22500001 12017254
0.046430189 0.01611213 0.22500001 13860487
0.047699302 0.01618374 0.22600001 14460585
-0.012251017 0.016407065 0.215 8543065
-0.011344546 0.01655969 0.21700001 10449007
-0.010419265 0.016712314 0.21900001 11500922
-0.0093465513 0.016636001 0.21800001 12682629
-0.0083214147 0.016636001 0.21800001 13207175
-0.0073297471 0.016712314 0.21900001 13534602
-0.0062999078 0.016712314 0.21900001 13797517
-0.0052700685 0.016712314 0.21900001 14190738
-0.0042402293 0.016712314 0.21900001 15440035
-0.0032103905 0.016712314 0.21900001 15638438
-0.0021805512 0.016712314 0.21900001 16098987
-0.0011454576 0.016636001 0.21800001 15901606
-0.00012032092 0.016636001 0.21800001 16428463
0.00090481574 0.016636001 0.21800001 14260378
0.0019299526 0.016636001 0.21800001 16365754
0.0029686447 0.016712314 0.21900001 16757172
0.003998484 0.016712314 0.21900001 15177113
0.0050283228 0.016712314 0.21900001 14718876
0.0060581621 0.016712314 0.21900001 14855082
0.0070880018 0.016712314 0.21900001 12224652
0.0081178406 0.016712314 0.21900001 13605276
0.0091476804 0.016712314 0.21900001 14062232
0.010177519 0.016712314 0.21900001 14784669
0.011207358 0.016712314 0.21900001 15376547
0.012237198 0.016712314 0.21900001 15902119
0.013267037 0.016712314 0.21900001 14388884
0.014362157 0.016788626 0.22000001 15112353
0.0153967 0.016788626 0.22000001 15574185
0.016431242 0.016788626 0.22000001 15705771
0.017465783 0.016788626 0.22000001 15311009
0.018500324 0.016788626 0.22000001 16034732
0.019623661 0.016864939 0.22100002 14520986
0.020662906 0.016864939 0.22100002 14982316
0.02170215 0.016864939 0.22100002 16763864
0.022741394 0.016864939 0.22100002 13863058
0.023780638 0.016864939 0.22100002 13599884
0.024932191 0.016941249 0.22200002 14455193
0.025976136 0.016941249 0.22200002 15048357
0.027141793 0.01701756 0.223 15645890
0.028190443 0.01701756 0.223 16775159
0.029239092 0.01701756 0.223 16775925
0.030423561 0.017093873 0.22400001 16171971
0.031476911 0.017093873 0.22400001 7746871
0.032530263 0.017093873 0.22400001 5839390
0.033583615 0.017093873 0.22400001 6038050
0.034636967 0.017093873 0.22400001 6564394
0.035849649 0.017170185 0.22500001 7879738
0.036907703 0.017170185 0.22500001 8995651
0.03796576 0.017170185 0.22500001 11954539
0.039023813 0.017170185 0.22500001 14520468
0.040081866 0.017170185 0.22500001 13861253
0.041139919 0.017170185 0.22500001 14057605
0.042197973 0.017170185 0.22500001 13005171
0.043256026 0.017170185 0.22500001 12149865
0.044314083 0.017170185 0.22500001 12807542
0.045372136 0.017170185 0.22500001 14452367
0.046430189 0.017170185 0.22500001 15441057
0.047699302 0.017246498 0.22600001 14922165
-0.013693835 0.017985197 0.22200002 7164238
-0.011449104 0.017742153 0.21900001 9331811
-0.010466842 0.017823167 0.22000001 10712179
-0.0094323 0.017823167 0.22000001 11303291
-0.0083595868 0.017742153 0.21900001 12748684
-0.0073632165 0.017823167 0.22000001 12746372
-0.0063286745 0.017823167 0.22000001 14324118
-0.005294133 0.017823167 0.22000001 14258066
-0.0042595915 0.017823167 0.22000001 13994896
-0.0032250497 0.017823167 0.22000001 13994642
-0.0021905082 0.017823167 0.22000001 14653853
-0.001150712 0.017742153 0.21900001 14917023
-0.00012087285 0.017742153 0.21900001 15312551
0.00090896629 0.017742153 0.21900001 13536655
0.0019388056 0.017742153 0.21900001 14917541
0.0029822004 0.017823167 0.22000001 13929103
0.0040167416 0.017823167 0.22000001 14586261
0.0050512836 0.017823167 0.22000001 14719644
0.0060858252 0.017823167 0.22000001 14985132
0.0071203671 0.017823167 0.22000001 11762305
0.0081549082 0.017823167 0.22000001 13077649
0.0091894502 0.017823167 0.22000001 14258841
0.010223992 0.017823167 0.22000001 14455704
0.011207358 0.017742153 0.21900001 15113373
0.012237198 0.017742153 0.21900001 14916248
0.013327616 0.017823167 0.22000001 14849431
0.014362157 0.017823167 0.22000001 14784408
0.0153967 0.017823167 0.22000001 14916253
0.016431242 0.017823167 0.22000001 14324116
0.017465783 0.017823167 0.22000001 14653081
0.018500324 0.017823167 0.22000001 14653081
0.019623661 0.017904183 0.22100002 13534345
0.020662906 0.017904183 0.22100002 16626364
0.02170215 0.017904183 0.22100002 15442088
0.022741394 0.017904183 0.22100002 14585750
0.023780638 0.017904183 0.22100002 13402505
0.024932191 0.017985197 0.22200002 15508910
0.025976136 0.017985197 0.22200002 16038084
0.027141793 0.018066211 0.223 16110807
0.028190443 0.018066211 0.223 16379885
0.029239092 0.018066211 0.223 16776951
0.030423561 0.018147225 0.22400001 16772844
0.031476911 0.018147225 0.22400001 15510445
0.032530263 0.018147225 0.22400001 12417407
0.033583615 0.018147225 0.22400001 13076104
0.034636967 0.018147225 0.22400001 10904420
0.035690319 0.018147225 0.22400001 10445154
0.036743671 0.018147225 0.22400001 12220543
0.037797023 0.018147225 0.22400001 12548477
0.038850375 0.018147225 0.22400001 16756917
0.039903726 0.018147225 0.22400001 14057862
0.041139919 0.01822824 0.22500001 14254468
0.042197973 0.01822824 0.22500001 14517640
0.043256026 0.01822824 0.22500001 15504281
0.044314083 0.01822824 0.22500001 15834275
0.045372136 0.01822824 0.22500001 16759232
0.046430189 0.01822824 0.22500001 16760004
0.047699302 0.018309254 0.22600001 13738409
-0.014063938 0.019543443 0.22800002 6638409
-0.01276385 0.019200575 0.22400001 7491920
-0.011605942 0.019029142 0.22200002 9068639
-0.010514419 0.018943425 0.22100002 10581363
-0.0094751734 0.018943425 0.22100002 11501181
-0.0084359301 0.018943425 0.22100002 12026244
-0.0073966854 0.018943425 0.22100002 12484996
-0.0063574412 0.018943425 0.22100002 13667474
-0.0053181974 0.018943425 0.22100002 14653599
-0.0042789532 0.018943425 0.22100002 14061462
-0.0032397092 0.018943425 0.22100002 13994899
-0.002200465 0.018943425 0.22100002 13731727
-0.0011559664 0.018857708 0.22000001 14061716
-0.00012142478 0.018857708 0.22000001 12945547
0.00091311685 0.018857708 0.22000001 13274512
0.0019476586 0.018857708 0.22000001 13208460
0.0029957558 0.018943425 0.22100002 13996693
0.0040349998 0.018943425 0.22100002 14850462
0.005074244 0.018943425 0.22100002 15047839
0.0061134882 0.018943425 0.22100002 14522783
0.0071527325 0.018943425 0.22100002 13668505
0.0081919767 0.018943425 0.22100002 13931161
0.0092312209 0.018943425 0.22100002 14128025
0.010270464 0.018943425 0.22100002 14259095
0.011258533 0.018857708 0.22000001 14389909
0.012293075 0.018857708 0.22000001 14784408
0.013327616 0.018857708 0.22000001 14784410
0.014362157 0.018857708 0.22000001 14455702
0.0153967 0.018857708 0.22000001 14259093
0.016431242 0.018857708 0.22000001 13535372
0.017545175 0.018943425 0.22100002 13337739
0.018584417 0.018943425 0.22100002 13535372
0.019623661 0.018943425 0.22100002 13337221
0.020662906 0.018943425 0.22100002 14586259
0.02170215 0.018943425 0.22100002 14849433
0.022741394 0.018943425 0.22100002 14652824
0.023780638 0.018943425 0.22100002 14258068
0.024932191 0.019029142 0.22200002 13994644
0.025976136 0.019029142 0.22200002 15244459
0.027141793 0.019114858 0.223 16762832
0.028190443 0.019114858 0.223 16775161
0.029239092 0.019114858 0.223 16776185
0.030423561 0.019200575 0.22400001 16768744
0.031476911 0.019200575 0.22400001 15969461
0.032530263 0.019200575 0.22400001 16692409
0.033583615 0.019200575 0.22400001 15376806
0.034636967 0.019200575 0.22400001 15574183
0.035690319 0.019200575 0.22400001 13010311
0.036743671 0.019200575 0.22400001 16767194
0.037797023 0.019200575 0.22400001 16766686
0.038850375 0.019200575 0.22400001 16766686
0.039903726 0.019200575 0.22400001 16755377
0.040957075 0.019200575 0.22400001 16689584
0.042197973 0.019286292 0.22500001 16755634
0.043256026 0.019286292 0.22500001 16689584
0.044314083 0.019286292 0.22500001 16756404
0.045372136 0.019286292 0.22500001 16428467
0.046430189 0.019286292 0.22500001 16564164
0.047699302 0.019372009 0.22600001 7950678
-0.014125622 0.020706024 0.22900002 6900298
-0.012820832 0.020344347 0.22500001 7491922
-0.011815057 0.020434767 0.22600001 8411225
-0.010609571 0.020163508 0.223 10055021
-0.0095609212 0.020163508 0.223 11369595
-0.0084741022 0.02007309 0.22200002 11961473
-0.0074301548 0.02007309 0.22200002 11762557
-0.0063862083 0.02007309 0.22200002 13668757
-0.0053422614 0.02007309 0.22200002 14258841
-0.0042983149 0.02007309 0.22200002 15048357
-0.0032543684 0.02007309 0.22200002 14785185
-0.002210422 0.02007309 0.22200002 15048611
-0.0011612208 0.01998267 0.22100002 14787238
-0.00012197671 0.01998267 0.22100002 12157830
0.00091726735 0.01998267 0.22100002 14065314
0.0019565115 0.01998267 0.22100002 14261148
0.0030093112 0.02007309 0.22200002 13536655
0.0040532579 0.02007309 0.22200002 14062486
0.0050972044 0.02007309 0.22200002 14653599
0.0061411508 0.02007309 0.22200002 13864083
0.0071850978 0.02007309 0.22200002 13799575
0.0082290443 0.02007309 0.22200002 14391199
0.0092729907 0.02007309 0.22200002 14522783
0.010316937 0.02007309 0.22200002 14522013
0.011309708 0.01998267 0.22100002 13995923
0.012348953 0.01998267 0.22100002 13995153
0.013388197 0.01998267 0.22100002 13733267
0.01442744 0.01998267 0.22100002 13339792
0.015466685 0.01998267 0.22100002 12944264
0.016505929 0.01998267 0.22100002 13010057
0.017624564 0.02007309 0.22200002 13470608
0.01866851 0.02007309 0.22200002 13339022
0.019712457 0.02007309 0.22200002 12680833
0.020756403 0.02007309 0.22200002 13667728
0.02180035 0.02007309 0.22200002 14127509
0.022844296 0.02007309 0.22200002 13930900
0.023888243 0.02007309 0.22200002 14324888
0.024932191 0.02007309 0.22200002 14850460
0.025976136 0.02007309 0.22200002 14849435
0.027141793 0.020163508 0.223 15901356
0.028190443 0.020163508 0.223 15639726
0.029239092 0.020163508 0.223 15971775
0.030423561 0.020253927 0.22400001 15578564
0.031476911 0.020253927 0.22400001 15577028
0.032530263 0.020253927 0.22400001 15906234
0.033583615 0.020253927 0.22400001 15049381
0.034636967 0.020253927 0.22400001 14522013
0.035690319 0.020253927 0.22400001 14458273
0.036743671 0.020253927 0.22400001 16768990
0.037797023 0.020253927 0.22400001 16770792
0.038850375 0.020253927 0.22400001 16769767
0.039903726 0.020253927 0.22400001 15967914
0.040957075 0.020253927 0.22400001 16624561
0.042197973 0.020344347 0.22500001 16492975
0.043256026 0.020344347 0.22500001 16756404
0.044314083 0.020344347 0.22500001 16760512
0.045372136 0.020344347 0.22500001 16171723
0.046430189 0.020344347 0.22500001 12034733
0.047699302 0.020434767 0.22600001 10789029
-0.01424899 0.021973131 0.23100001 7097929
-0.012934796 0.021592645 0.22700001 7162955
-0.011867336 0.021592645 0.22700001 8740190
-0.010752301 0.021497523 0.22600001 9266018
-0.00964667 0.021402402 0.22500001 11633281
-0.0085504446 0.021307278 0.22400001 11501181
-0.0074970927 0.021307278 0.22400001 11763840
-0.0064149746 0.021212157 0.223 12552073
-0.0053663254 0.021212157 0.223 13010059
-0.0043176766 0.021212157 0.223 13864853
-0.0032690277 0.021212157 0.223 14588576
-0.0022203785 0.021212157 0.223 14391197
-0.0011664752 0.021117037 0.22200002 13405587
-0.00012252865 0.021117037 0.22200002 12484231
0.0009214179 0.021117037 0.22200002 12747657
0.0019653647 0.021117037 0.22200002 12680579
0.0030228666 0.021212157 0.223 13206407
0.0040715155 0.021212157 0.223 13666188
0.0051201642 0.021212157 0.223 13403532
0.0061688134 0.021212157 0.223 14653599
0.0072174626 0.021212157 0.223 14391197
0.0082661118 0.021212157 0.223 14193818
0.0093147606 0.021212157 0.223 14128538
0.010363409 0.021212157 0.223 14523296
0.011360884 0.021117037 0.22200002 14325917
0.01240483 0.021117037 0.22200002 12944264
0.013448777 0.021117037 0.22200002 12814223
0.014492723 0.021117037 0.22200002 13276059
0.01553667 0.021117037 0.22200002 13471639
0.016580617 0.021117037 0.22200002 13470610
0.017703952 0.021212157 0.223 13602196
0.018752601 0.021212157 0.223 13931161
0.01980125 0.021212157 0.223 14062747
0.0208499 0.021212157 0.223 13931931
0.021898549 0.021212157 0.223 13668759
0.022947198 0.021212157 0.223 13405585
0.023995847 0.021212157 0.223 13996693
0.025044495 0.021212157 0.223 14193302
0.026093146 0.021212157 0.223 14456474
0.027141793 0.021212157 0.223 15376549
0.028190443 0.021212157 0.223 16494260
0.029370209 0.021307278 0.22400001 16165295
0.030423561 0.021307278 0.22400001 16165816
0.031476911 0.021307278 0.22400001 16761039
0.032530263 0.021307278 0.22400001 16763085
0.033583615 0.021307278 0.22400001 16770282
0.034636967 0.021307278 0.22400001 16760005
0.035690319 0.021307278 0.22400001 14785185
0.036743671 0.021307278 0.22400001 16766426
0.037797023 0.021307278 0.22400001 16771051
0.038850375 0.021307278 0.22400001 16768999
0.039903726 0.021307278 0.22400001 15246506
0.040957075 0.021307278 0.22400001 16166063
0.042197973 0.021402402 0.22500001 15377574
0.043256026 0.021402402 0.22500001 15050923
0.044314083 0.021402402 0.22500001 8870245
0.045372136 0.021402402 0.22500001 4533302
0.046430189 0.021402402 0.22500001 3814458
0.047699302 0.021497523 0.22600001 3815741
-0.014372357 0.023259049 0.23300001 7163209
-0.013162721 0.0230594 0.23100001 7426381
-0.011971895 0.022859754 0.22900002 8347229
-0.010847454 0.022759929 0.22800002 8543324
-0.0097324178 0.022660105 0.22700001 11174013
-0.0086267879 0.02256028 0.22600001 10976634
-0.0075305621 0.022460455 0.22500001 11895939
-0.006472508 0.022460455 0.22500001 12553356
-0.0053903898 0.02236063 0.22400001 13143440
-0.0043370384 0.02236063 0.22400001 13405585
-0.0032836869 0.02236063 0.22400001 13536401
-0.0022303355 0.02236063 0.22400001 13536401
-0.0011769839 0.02236063 0.22400001 13404815
-0.00012308056 0.022260806 0.223 13010057
0.0009255684 0.022260806 0.223 12812678
0.0019742176 0.022260806 0.223 12877958
0.003036422 0.02236063 0.22400001 14850462
0.0040897732 0.02236063 0.22400001 14718874
0.0051431246 0.02236063 0.22400001 14061716
0.0061964765 0.02236063 0.22400001 14324888
0.0072498284 0.02236063 0.22400001 14061716
0.0083031794 0.02236063 0.22400001 14654369
0.0093565313 0.02236063 0.22400001 14523296
0.010409882 0.02236063 0.22400001 13339022
0.011412058 0.022260806 0.223 12484485
0.012460708 0.022260806 0.223 11958141
0.013509356 0.022260806 0.223 12616848
0.014558005 0.022260806 0.223 13407393
0.015606654 0.022260806 0.223 13669532
0.016655304 0.022260806 0.223 13010829
0.017783344 0.02236063 0.22400001 12550278
0.018836694 0.02236063 0.22400001 14260642
0.019890046 0.02236063 0.22400001 13800858
0.020943398 0.02236063 0.22400001 13866651
0.02199675 0.02236063 0.22400001 14524327
0.0230501 0.02236063 0.22400001 12813963
0.024103452 0.02236063 0.22400001 14128538
0.025156803 0.02236063 0.22400001 13996439
0.026210155 0.02236063 0.22400001 13075339
0.027263505 0.02236063 0.22400001 13074569
0.028316857 0.02236063 0.22400001 12877190
0.029370209 0.02236063 0.22400001 13336971
0.030423561 0.02236063 0.22400001 14981539
0.031476911 0.02236063 0.22400001 14060437
0.032530263 0.02236063 0.22400001 13731729
0.033583615 0.02236063 0.22400001 13140362
0.034636967 0.02236063 0.22400001 12811395
0.035690319 0.02236063 0.22400001 13535372
0.036743671 0.02236063 0.22400001 13929360
0.037797023 0.02236063 0.22400001 13272718
0.038850375 0.02236063 0.22400001 12878219
0.039903726 0.02236063 0.22400001 13404817
0.040957075 0.02236063 0.22400001 14393255
0.042010427 0.02236063 0.22400001 12950176
-0.014557409 0.024668302 0.23600002 6439745
-0.013333665 0.024459248 0.23400001 7558226
-0.012076451 0.024145668 0.23100001 8808295
-0.010942607 0.02404114 0.23 9136745
-0.0098181665 0.023936616 0.22900002 10583673
-0.0087031312 0.023832088 0.22800002 10714745
-0.0075975005 0.023727562 0.22700001 11305599
-0.0065300413 0.023727562 0.22700001 11830660
-0.0054385182 0.023623034 0.22600001 12355977
-0.0043564001 0.023518508 0.22500001 13013139
-0.0032983462 0.023518508 0.22500001 13603477
-0.0022402923 0.023518508 0.22500001 13471378
-0.0011822383 0.023518508 0.22500001 13997206
-0.00012418443 0.023518508 0.22500001 13535888
0.00093386945 0.023518508 0.22500001 13141130
0.0019919234 0.023518508 0.22500001 14587036
0.0030499776 0.023518508 0.22500001 15179173
0.0041080313 0.023518508 0.22500001 14785185
0.0051660854 0.023518508 0.22500001 14851748
0.0062241391 0.023518508 0.22500001 14193048
0.0072821938 0.023518508 0.22500001 13864085
0.008340247 0.023518508 0.22500001 13666706
0.0093983011 0.023518508 0.22500001 13733269
0.010456355 0.023518508 0.22500001 13010057
0.011463233 0.02341398 0.22400001 12680581
0.012516585 0.02341398 0.22400001 12549508
0.013569936 0.02341398 0.22400001 12287881
0.014623287 0.02341398 0.22400001 13934507
0.01567664 0.02341398 0.22400001 13472923
0.016729992 0.02341398 0.22400001 12352899
0.017783344 0.02341398 0.22400001 12352645
0.018836694 0.02341398 0.22400001 12484744
0.019890046 0.02341398 0.22400001 12813711
0.020943398 0.02341398 0.22400001 12945295
0.02199675 0.02341398 0.22400001 13603479
0.0230501 0.02341398 0.22400001 12879754
0.024103452 0.02341398 0.22400001 13404815
0.025156803 0.02341398 0.22400001 13996439
0.026210155 0.02341398 0.22400001 13733267
0.027263505 0.02341398 0.22400001 12681092
0.028316857 0.02341398 0.22400001 13010057
0.029370209 0.02341398 0.22400001 13206923
0.030559381 0.023518508 0.22500001 12746372
0.031617437 0.023518508 0.22500001 12877958
0.03267549 0.023518508 0.22500001 13666706
0.033733539 0.023518508 0.22500001 13666704
0.034791596 0.023518508 0.22500001 13667474
0.035849649 0.023518508 0.22500001 13667474
0.036743671 0.02341398 0.22400001 14587806
0.037797023 0.02341398 0.22400001 14062745
0.038850375 0.02341398 0.22400001 13538968
0.039903726 0.02341398 0.22400001 13541800
-0.014495726 0.025668854 0.23500001 5849663
-0.013333665 0.025559625 0.23400001 7954269
-0.012128731 0.025341166 0.23200001 8611686
-0.010990184 0.025231937 0.23100001 8874856
-0.0099039143 0.025231937 0.23100001 10255480
-0.0087794745 0.025122708 0.23 10583673
-0.0076644388 0.02501348 0.22900002 10714232
-0.0065875752 0.02501348 0.22900002 10516085
-0.0054866467 0.024904251 0.22800002 10711927
-0.0043951236 0.024795022 0.22700001 11697279
-0.0033130057 0.024685793 0.22600001 13078417
-0.0022502493 0.024685793 0.22600001 13209233
-0.0011874927 0.024685793 0.22600001 13208719
-0.00012473637 0.024685793 0.22600001 13800597
0.00093802001 0.024685793 0.22600001 13865620
0.0020007766 0.024685793 0.22600001 13667474
0.003063533 0.024685793 0.22600001 14588576
0.0041262894 0.024685793 0.22600001 13996952
0.0051890458 0.024685793 0.22600001 13668759
0.0062518022 0.024685793 0.22600001 13339794
0.0073145591 0.024685793 0.22600001 13668759
0.0083773145 0.024685793 0.22600001 13010829
0.0094400719 0.024685793 0.22600001 13141643
0.010502828 0.024685793 0.22600001 14062745
0.011514409 0.024576563 0.22500001 12944264
0.012572463 0.024576563 0.22500001 12549508
0.013630517 0.024576563 0.22500001 12484746
0.01468857 0.024576563 0.22500001 13408163
0.015746625 0.024576563 0.22500001 12880788
0.016804678 0.024576563 0.22500001 12352645
0.017862733 0.024576563 0.22500001 12089473
0.018920787 0.024576563 0.22500001 12221572
0.01997884 0.024576563 0.22500001 12221572
0.021036895 0.024576563 0.22500001 12287365
0.022094948 0.024576563 0.22500001 12418951
0.023153001 0.024576563 0.22500001 12748684
0.024211057 0.024576563 0.22500001 13208719
0.02526911 0.024576563 0.22500001 13339792
0.026327165 0.024576563 0.22500001 13866136
0.027385218 0.024576563 0.22500001 13734550
0.028443271 0.024576563 0.22500001 13734550
0.029501326 0.024576563 0.22500001 13010057
0.030559381 0.024576563 0.22500001 12681094
0.031617437 0.024576563 0.22500001 12812680
0.03267549 0.024576563 0.22500001 13799573
0.033733539 0.024576563 0.22500001 13799573
0.034791596 0.024576563 0.22500001 12024445
0.035849649 0.024576563 0.22500001 12551303
0.036743671 0.024467332 0.22400001 13210003
0.037797023 0.024467332 0.22400001 14132903
0.038850375 0.024467332 0.22400001 8348264
-0.014557409 0.026887866 0.23600002 6773342
-0.013276684 0.02654607 0.23300001 6770513
-0.01218101 0.02654607 0.23300001 8546406
-0.01103776 0.026432138 0.23200001 9268844
-0.0099467887 0.026432138 0.23200001 10123894
-0.0088558178 0.026432138 0.23200001 9794929
-0.0077313767 0.026318206 0.23100001 10189687
-0.0066163414 0.026204275 0.23 10648954
-0.0055347751 0.026204275 0.23 11174015
-0.0044338475 0.026090344 0.22900002 11764101
-0.0033423244 0.025976412 0.22800002 12553358
-0.002270163 0.025976412 0.22800002 12815758
-0.0011980016 0.025976412 0.22800002 12353924
-0.00012528829 0.025862481 0.22700001 13405585
0.00094217056 0.025862481 0.22700001 13207436
0.0020096295 0.025862481 0.22700001 13010057
0.0030770884 0.025862481 0.22700001 12879241
0.004144547 0.025862481 0.22700001 12879756
0.0052120062 0.025862481 0.22700001 12353412
0.0062794648 0.025862481 0.22700001 12221826
0.0073469244 0.025862481 0.22700001 12287617
0.008414383 0.025862481 0.22700001 12748422
0.0094818417 0.025862481 0.22700001 12550530
0.0105493 0.025862481 0.22700001 13075852
0.011565584 0.025748549 0.22600001 13536403
0.012628341 0.025748549 0.22600001 13010829
0.013691097 0.025748549 0.22600001 12287879
0.014753853 0.025748549 0.22600001 13277090
0.01581661 0.025748549 0.22600001 12947094
0.016879367 0.025748549 0.22600001 13800858
0.017942123 0.025748549 0.22600001 12681610
0.019004878 0.025748549 0.22600001 12682123
0.020067636 0.025748549 0.22600001 12945549
0.021130392 0.025748549 0.22600001 12222340
0.022193149 0.025748549 0.22600001 12486028
0.023255905 0.025748549 0.22600001 12617614
0.024318662 0.025748549 0.22600001 12353926
0.025381418 0.025748549 0.22600001 13603477
0.026444174 0.025748549 0.22600001 13735063
0.027506931 0.025748549 0.22600001 13472407
0.028569687 0.025748549 0.22600001 12551051
0.029632444 0.025748549 0.22600001 12551053
0.0306952 0.025748549 0.22600001 12287879
0.031757958 0.025748549 0.22600001 13142928
0.032820713 0.025748549 0.22600001 13866136
0.033883467 0.025748549 0.22600001 13603477
0.034946226 0.025748549 0.22600001 12816530
0.03600898 0.025748549 0.22600001 13148321
0.036907703 0.025634617 0.22500001 9202542
-0.014557409 0.027997646 0.23600002 4803661
-0.013390647 0.027879013 0.23500001 5394001
-0.01218101 0.027641743 0.23300001 6574163
-0.011085337 0.027641743 0.23300001 8480613
-0.009989663 0.027641743 0.23300001 9796212
-0.008893989 0.027641743 0.23300001 9533040
-0.0077983155 0.027641743 0.23300001 9992821
-0.0066738748 0.02752311 0.23200001 10123894
-0.0055588395 0.027404476 0.23100001 10912126
-0.0044725705 0.027404476 0.23100001 11042175
-0.0033716429 0.02728584 0.23 11172218
-0.0022900766 0.02728584 0.23 12816530
-0.001203256 0.027167208 0.22900002 12026242
-0.00012639216 0.027167208 0.22900002 12289414
0.00095047161 0.027167208 0.22900002 12552073
0.0020273356 0.027167208 0.22900002 12486280
0.0031041994 0.027167208 0.22900002 12289414
0.0041810633 0.027167208 0.22900002 11894658
0.0052579269 0.027167208 0.22900002 11105142
0.006334791 0.027167208 0.22900002 12025731
0.0073792897 0.027048575 0.22800002 12617096
0.0084514506 0.027048575 0.22800002 13076874
0.0095236124 0.027048575 0.22800002 12813448
0.010595773 0.027048575 0.22800002 12418692
0.011616759 0.026929939 0.22700001 12747657
0.012684219 0.026929939 0.22700001 12879243
0.013751677 0.026929939 0.22700001 12683409
0.014819135 0.026929939 0.22700001 13277858
0.015886595 0.026929939 0.22700001 12421522
0.016954053 0.026929939 0.22700001 13012372
0.018021513 0.026929939 0.22700001 13274774
0.01908897 0.026929939 0.22700001 13472407
0.02015643 0.026929939 0.22700001 13471893
0.02122389 0.026929939 0.22700001 13603479
0.022291349 0.026929939 0.22700001 12683407
0.023358807 0.026929939 0.22700001 11959684
0.024426267 0.026929939 0.22700001 12288133
0.025493726 0.026929939 0.22700001 13011856
0.026561184 0.026929939 0.22700001 13275028
0.027628642 0.026929939 0.22700001 12881040
0.028696101 0.026929939 0.22700001 12551821
0.029763561 0.026929939 0.22700001 12420235
0.03083102 0.026929939 0.22700001 12486028
0.03189848 0.026929939 0.22700001 12486028
0.032965939 0.026929939 0.22700001 12880786
0.034033395 0.026929939 0.22700001 13145758
0.034946226 0.026811305 0.22600001 9333623
0.03600898 0.026811305 0.22600001 5193029
