# .PCD v0.7 - Point Cloud Data file format
VERSION 0.7
FIELDS x y z rgb
SIZE 4 4 4 4
TYPE F F F U
COUNT 1 1 1 1
WIDTH 1097
HEIGHT 1
VIEWPOINT 0 0 0 1 0 0 0
POINTS 1097
DATA ascii
0.040652212 0.015033451 0.19700001 8206135
0.041367538 0.014957139 0.19600001 9323848
0.04228922 0.014957139 0.19600001 9981519
0.043210901 0.014957139 0.19600001 9981776
0.044132583 0.014957139 0.19600001 9456974
0.045054268 0.014957139 0.19600001 11891830
0.045741379 0.014880827 0.19500001 13471630
0.046658359 0.014880827 0.19500001 11436933
0.047331363 0.014804515 0.19400001 3154727
-0.015916178 0.017013023 0.21000001 3354418
-0.014857572 0.016932009 0.20900001 6308933
-0.013808371 0.016850995 0.208 12815758
-0.012768575 0.016769981 0.20700002 13797772
-0.011795166 0.016769981 0.20700002 13402755
-0.010769477 0.016688967 0.20600002 12478827
-0.0097531937 0.016607951 0.20500001 12018276
-0.0087463139 0.016526937 0.20400001 12019049
-0.0078251837 0.016607951 0.20500001 12415610
-0.0068611787 0.016607951 0.20500001 16100793
-0.0058684074 0.016526937 0.20400001 12154496
-0.0049091051 0.016526937 0.20400001 13272464
-0.0039304411 0.016445924 0.20300001 12284026
-0.0029758413 0.016445924 0.20300001 10902623
-0.0020212415 0.016445924 0.20300001 10508890
-0.0010666418 0.016445924 0.20300001 11233383
-0.00011204195 0.016445924 0.20300001 11956336
0.00084255781 0.016445924 0.20300001 11560558
0.0017971577 0.016445924 0.20300001 15707059
0.0027517574 0.016445924 0.20300001 16763344
0.0037063572 0.016445924 0.20300001 12088957
0.004660957 0.016445924 0.20300001 13471891
0.0056155566 0.016445924 0.20300001 12552588
0.0065701571 0.016445924 0.20300001 11697797
0.0075247562 0.016445924 0.20300001 13801888
0.0084793568 0.016445924 0.20300001 13800345
0.0094339559 0.016445924 0.20300001 12681094
0.01033738 0.016364908 0.20200001 16766429
0.011287278 0.016364908 0.20200001 16766939
0.012237174 0.016364908 0.20200001 16766941
0.013187071 0.016364908 0.20200001 11432572
0.014136969 0.016364908 0.20200001 9918304
0.01501218 0.016283894 0.20100001 9720925
0.015957374 0.016283894 0.20100001 9984610
0.016902568 0.016283894 0.20100001 10117993
0.017847763 0.016283894 0.20100001 9329760
0.018792959 0.016283894 0.20100001 8016471
0.019639954 0.01620288 0.2 7293261
0.020580446 0.01620288 0.2 7030085
0.021520939 0.01620288 0.2 6635841
0.022461431 0.01620288 0.2 6439745
0.023401923 0.01620288 0.2 6506308
0.024220705 0.016121866 0.19900002 6309183
0.025156494 0.016121866 0.19900002 5650483
0.026092285 0.016121866 0.19900002 5321518
0.027028076 0.016121866 0.19900002 5585206
0.027823344 0.01604085 0.19800001 6047040
0.028754432 0.01604085 0.19800001 6244935
0.029685516 0.01604085 0.19800001 5784897
0.030616604 0.01604085 0.19800001 5850690
0.031547692 0.01604085 0.19800001 6245448
0.032314748 0.015959837 0.19700001 6442827
0.03324113 0.015959837 0.19700001 6574413
0.034167517 0.015959837 0.19700001 6442827
0.035093904 0.015959837 0.19700001 5191735
0.036020283 0.015959837 0.19700001 5782587
0.036946669 0.015959837 0.19700001 6503741
0.037873056 0.015959837 0.19700001 4725016
0.038799442 0.015959837 0.19700001 5512476
0.039725825 0.015959837 0.19700001 7616053
0.040652212 0.015959837 0.19700001 10180697
0.041367538 0.015878823 0.19600001 11495789
0.04228922 0.015878823 0.19600001 10508894
0.043210901 0.015878823 0.19600001 11496305
0.044132583 0.015878823 0.19600001 10970476
0.045054268 0.015878823 0.19600001 12024445
0.045741379 0.015797807 0.19500001 13933210
0.046658359 0.015797807 0.19500001 11501443
0.047331363 0.015716793 0.19400001 3286827
-0.015764596 0.017829105 0.208 4208442
-0.014786483 0.017829105 0.208 10582394
-0.013741985 0.01774339 0.20700002 12419455
-0.012768575 0.01774339 0.20700002 12416119
-0.011738185 0.017657673 0.20600002 13006714
-0.010717198 0.017571956 0.20500001 12149865
-0.0097531937 0.017571956 0.20500001 12281703
-0.0087463139 0.017486239 0.20400001 12282473
-0.007787012 0.017486239 0.20400001 12216680
-0.0068611787 0.017571956 0.20500001 11822953
-0.0058684074 0.017486239 0.20400001 12349817
-0.0049091051 0.017486239 0.20400001 12284283
-0.0039304411 0.017400522 0.20300001 11691117
-0.0029758413 0.017400522 0.20300001 11034466
-0.0020212415 0.017400522 0.20300001 10246751
-0.0010666418 0.017400522 0.20300001 10773349
-0.00011204195 0.017400522 0.20300001 10838625
0.00084255781 0.017400522 0.20300001 11364201
0.0017971577 0.017400522 0.20300001 12745084
0.0027517574 0.017400522 0.20300001 12876672
0.0037063572 0.017400522 0.20300001 12153717
0.004660957 0.017400522 0.20300001 12089725
0.0056155566 0.017400522 0.20300001 11565693
0.0065701571 0.017400522 0.20300001 12092037
0.0075247562 0.017400522 0.20300001 12288133
0.0084793568 0.017400522 0.20300001 12287104
0.0094339559 0.017400522 0.20300001 11497842
0.01033738 0.017314805 0.20200001 11037037
0.011287278 0.017314805 0.20200001 10315113
0.012237174 0.017314805 0.20200001 12420235
0.013187071 0.017314805 0.20200001 9789028
0.014136969 0.017314805 0.20200001 10775664
0.01501218 0.017229088 0.20100001 10905966
0.015957374 0.017229088 0.20100001 10774380
0.016902568 0.017229088 0.20100001 10511722
0.017847763 0.017229088 0.20100001 9591390
0.018792959 0.017229088 0.20100001 8474965
0.019639954 0.017143371 0.2 6896703
0.020580446 0.017143371 0.2 7686219
0.021520939 0.017143371 0.2 9460833
0.022461431 0.017143371 0.2 7552836
0.023401923 0.017143371 0.2 6829367
0.024220705 0.017057655 0.19900002 8211018
0.025156494 0.017057655 0.19900002 9263706
0.026092285 0.017057655 0.19900002 9001309
0.027028076 0.017057655 0.19900002 6964808
0.027963866 0.017057655 0.19900002 6506312
0.028899657 0.017057655 0.19900002 5915456
0.029685516 0.016971938 0.19800001 5521212
0.030616604 0.016971938 0.19800001 5521210
0.031547692 0.016971938 0.19800001 6639691
0.032314748 0.016886221 0.19700001 6376519
0.03324113 0.016886221 0.19700001 6310728
0.034167517 0.016886221 0.19700001 6638409
0.035093904 0.016886221 0.19700001 6899013
0.036020283 0.016886221 0.19700001 10251114
0.036946669 0.016886221 0.19700001 10118499
0.037873056 0.016886221 0.19700001 11432560
0.038799442 0.016886221 0.19700001 11497840
0.039725825 0.016886221 0.19700001 11693934
0.040652212 0.016886221 0.19700001 11101797
0.041367538 0.016800504 0.19600001 11101799
0.04228922 0.016800504 0.19600001 12220541
0.043210901 0.016800504 0.19600001 13339022
0.044132583 0.016800504 0.19600001 13734552
0.045054268 0.016800504 0.19600001 14393507
0.045741379 0.016714787 0.19500001 13342102
0.046658359 0.016714787 0.19500001 9464430
0.047331363 0.01662907 0.19400001 3682098
-0.015613014 0.018626381 0.20600002 4273975
-0.014644306 0.018626381 0.20600002 11306117
-0.013675598 0.018626381 0.20600002 12682629
-0.012706892 0.018626381 0.20600002 12811647
-0.011681203 0.01853596 0.20500001 13599366
-0.010717198 0.01853596 0.20500001 12676983
-0.0097056171 0.018445542 0.20400001 12611186
-0.0087463139 0.018445542 0.20400001 12940403
-0.007787012 0.018445542 0.20400001 11361371
-0.0068611787 0.01853596 0.20500001 10704213
-0.0058684074 0.018445542 0.20400001 9717068
-0.0049091051 0.018445542 0.20400001 10507618
-0.0039304411 0.018355122 0.20300001 9981274
-0.0029758413 0.018355122 0.20300001 9455700
-0.0020212415 0.018355122 0.20300001 9392477
-0.0010666418 0.018355122 0.20300001 10774128
-0.00011204195 0.018355122 0.20300001 9261391
0.00084255781 0.018355122 0.20300001 10312796
0.0017971577 0.018355122 0.20300001 9193804
0.0027517574 0.018355122 0.20300001 10642533
0.0037063572 0.018355122 0.20300001 10181982
0.004660957 0.018355122 0.20300001 10973556
0.0056155566 0.018355122 0.20300001 11961998
0.0065701571 0.018355122 0.20300001 11040380
0.0075247562 0.018355122 0.20300001 11303039
0.0084793568 0.018355122 0.20300001 13011854
0.0094339559 0.018355122 0.20300001 11893373
0.01033738 0.018264702 0.20200001 15907516
0.011287278 0.018264702 0.20200001 16040133
0.012237174 0.018264702 0.20200001 10513523
0.013187071 0.018264702 0.20200001 11303554
0.014136969 0.018264702 0.20200001 11697025
0.01501218 0.018174283 0.20100001 12354696
0.015957374 0.018174283 0.20100001 12814477
0.016902568 0.018174283 0.20100001 12617098
0.017847763 0.018174283 0.20100001 10972789
0.018792959 0.018174283 0.20100001 16764885
0.019639954 0.018083863 0.2 16370127
0.020580446 0.018083863 0.2 11696514
0.021520939 0.018083863 0.2 10972019
0.022461431 0.018083863 0.2 10774894
0.023401923 0.018083863 0.2 11761789
0.024220705 0.017993445 0.19900002 11893375
0.025156494 0.017993445 0.19900002 12420489
0.026092285 0.017993445 0.19900002 14856890
0.027028076 0.017993445 0.19900002 14201274
0.027823344 0.017903026 0.19800001 11438220
0.028754432 0.017903026 0.19800001 6502462
0.029685516 0.017903026 0.19800001 6699578
0.030616604 0.017903026 0.19800001 6567220
0.031547692 0.017903026 0.19800001 6303534
0.032314748 0.017812606 0.19700001 6567222
0.03324113 0.017812606 0.19700001 8409426
0.034167517 0.017812606 0.19700001 8737364
0.035272043 0.017903026 0.19800001 9393239
0.036203127 0.017903026 0.19800001 11628145
0.037134215 0.017903026 0.19800001 12417661
0.037873056 0.017812606 0.19700001 11693938
0.038799442 0.017812606 0.19700001 11628656
0.039725825 0.017812606 0.19700001 11891828
0.040652212 0.017812606 0.19700001 12352379
0.041367538 0.017722186 0.19600001 12944518
0.04228922 0.017722186 0.19600001 12944518
0.043210901 0.017722186 0.19600001 14786468
0.044132583 0.017722186 0.19600001 14589859
0.045054268 0.017722186 0.19600001 14524579
0.045741379 0.017631767 0.19500001 12619410
0.046658359 0.017631767 0.19500001 5782084
0.047331363 0.017541347 0.19400001 4667966
-0.015537222 0.019499965 0.20500001 4471101
-0.014573216 0.019499965 0.20500001 11634566
-0.013609212 0.019499965 0.20500001 13208971
-0.012645207 0.019499965 0.20500001 13009026
-0.011681203 0.019499965 0.20500001 13797517
-0.010717198 0.019499965 0.20500001 12480374
-0.0097056171 0.019404843 0.20400001 12742774
-0.0087463139 0.019404843 0.20400001 12544877
-0.007787012 0.019404843 0.20400001 13203577
-0.0068611787 0.019499965 0.20500001 11034209
-0.0058684074 0.019404843 0.20400001 14062745
-0.0049091051 0.019404843 0.20400001 16299707
-0.0039304411 0.019309722 0.20300001 11232365
-0.0029758413 0.019309722 0.20300001 11101808
-0.0020212415 0.019309722 0.20300001 10576751
-0.0010666418 0.019309722 0.20300001 12617614
-0.00011204195 0.019309722 0.20300001 11432308
0.00084255781 0.019309722 0.20300001 11103084
0.0017971577 0.019309722 0.20300001 16762569
0.0027517574 0.019309722 0.20300001 16500166
0.0037063572 0.019309722 0.20300001 16368067
0.004660957 0.019309722 0.20300001 11435136
0.0056155566 0.019309722 0.20300001 12488338
0.0065701571 0.019309722 0.20300001 12815506
0.0075247562 0.019309722 0.20300001 13340053
0.0084793568 0.019309722 0.20300001 12879241
0.0094339559 0.019309722 0.20300001 12550530
0.01033738 0.0192146 0.20200001 16764107
0.011287278 0.0192146 0.20200001 16764623
0.012237174 0.0192146 0.20200001 16765659
0.013187071 0.0192146 0.20200001 12354444
0.014136969 0.0192146 0.20200001 13273999
0.01501218 0.019119479 0.20100001 13339792
0.015957374 0.019119479 0.20100001 13405585
0.016902568 0.019119479 0.20100001 13668759
0.017847763 0.019119479 0.20100001 14524843
0.018792959 0.019119479 0.20100001 16764374
0.019639954 0.019024355 0.2 16763860
0.020580446 0.019024355 0.2 13668505
0.021520939 0.019024355 0.2 13996954
0.022461431 0.019024355 0.2 13405587
0.023401923 0.019024355 0.2 13273747
0.024220705 0.018929236 0.19900002 15774135
0.025156494 0.018929236 0.19900002 13933474
0.026092285 0.018929236 0.19900002 16773878
0.027028076 0.018929236 0.19900002 16771571
0.027823344 0.018834114 0.19800001 16771313
0.028754432 0.018834114 0.19800001 10053487
0.029685516 0.018834114 0.19800001 10973556
0.030616604 0.018834114 0.19800001 10511974
0.031547692 0.018834114 0.19800001 11366769
0.03247878 0.018834114 0.19800001 10971759
0.033409867 0.018834114 0.19800001 9984864
0.034167517 0.018738991 0.19700001 13473177
0.035272043 0.018834114 0.19800001 14460070
0.036203127 0.018834114 0.19800001 15379629
0.037134215 0.018834114 0.19800001 14917795
0.037873056 0.018738991 0.19700001 12944518
0.038799442 0.018738991 0.19700001 13997206
0.039725825 0.018738991 0.19700001 13602448
0.040652212 0.018738991 0.19700001 14062999
0.041367538 0.018643869 0.19600001 14391964
0.04228922 0.018643869 0.19600001 14062999
0.042990435 0.018548748 0.19500001 14129562
0.043907415 0.018548748 0.19500001 13735063
0.044824399 0.018548748 0.19500001 13472659
0.045741379 0.018548748 0.19500001 7621193
0.046658359 0.018548748 0.19500001 5916233
0.047331363 0.018453626 0.19400001 7957867
-0.015537222 0.020463971 0.20500001 4932939
-0.014573216 0.020463971 0.20500001 10584191
-0.013609212 0.020463971 0.20500001 14393245
-0.012645207 0.020463971 0.20500001 13272970
-0.011681203 0.020463971 0.20500001 13206407
-0.010664918 0.020364147 0.20400001 15835817
-0.0097056171 0.020364147 0.20400001 16098989
-0.0087463139 0.020364147 0.20400001 15441055
-0.007787012 0.020364147 0.20400001 14125195
-0.0068611787 0.020463971 0.20500001 12021361
-0.0058684074 0.020364147 0.20400001 16765139
-0.0049091051 0.020364147 0.20400001 16763858
-0.0039304411 0.020264322 0.20300001 13800091
-0.0029758413 0.020264322 0.20300001 13076368
-0.0020212415 0.020264322 0.20300001 12287365
-0.0010666418 0.020264322 0.20300001 13867935
-0.00011204195 0.020264322 0.20300001 13274251
0.00084255781 0.020264322 0.20300001 13536655
0.0017971577 0.020264322 0.20300001 16763337
0.0027517574 0.020264322 0.20300001 16500166
0.0037063572 0.020264322 0.20300001 16763597
0.004660957 0.020264322 0.20300001 12159113
0.0056155566 0.020264322 0.20300001 12620178
0.0065701571 0.020264322 0.20300001 13538970
0.0075247562 0.020264322 0.20300001 14130335
0.0084793568 0.020264322 0.20300001 14261659
0.0094339559 0.020264322 0.20300001 14721697
0.01033738 0.020164497 0.20200001 13405839
0.011287278 0.020164497 0.20200001 16766424
0.012237174 0.020164497 0.20200001 13668505
0.013187071 0.020164497 0.20200001 14325404
0.014136969 0.020164497 0.20200001 14391451
0.01501218 0.020064672 0.20100001 13865620
0.015957374 0.020064672 0.20100001 14457757
0.016902568 0.020064672 0.20100001 13931677
0.017847763 0.020064672 0.20100001 12814225
0.018792959 0.020064672 0.20100001 16038084
0.019639954 0.01996485 0.2 12550026
0.020580446 0.01996485 0.2 12614788
0.021520939 0.01996485 0.2 12285821
0.022461431 0.01996485 0.2 12680581
0.023401923 0.01996485 0.2 15048877
0.024220705 0.019865027 0.19900002 16760778
0.025156494 0.019865027 0.19900002 16764115
0.026092285 0.019865027 0.19900002 16773617
0.027028076 0.019865027 0.19900002 16640492
0.027823344 0.019765202 0.19800001 16772852
0.028754432 0.019765202 0.19800001 13012887
0.029685516 0.019765202 0.19800001 14656167
0.030616604 0.019765202 0.19800001 13932442
0.031547692 0.019765202 0.19800001 13603477
0.03247878 0.019765202 0.19800001 13669272
0.033409867 0.019765202 0.19800001 13077649
0.034167517 0.019665377 0.19700001 16764623
0.035272043 0.019765202 0.19800001 16302789
0.036203127 0.019765202 0.19800001 16763084
0.037134215 0.019765202 0.19800001 15247019
0.037873056 0.019665377 0.19700001 13733521
0.038799442 0.019665377 0.19700001 14194072
0.039725825 0.019665377 0.19700001 13931413
0.040652212 0.019665377 0.19700001 14260378
0.041367538 0.019565552 0.19600001 14326171
0.04228922 0.019565552 0.19600001 14392734
0.042990435 0.019465728 0.19500001 14722472
0.043907415 0.019465728 0.19500001 13012624
0.044824399 0.019465728 0.19500001 11435388
0.045741379 0.019465728 0.19500001 8807782
-0.015537222 0.021427974 0.20500001 5131601
-0.014573216 0.021427974 0.20500001 6178376
-0.013609212 0.021427974 0.20500001 13408667
-0.012645207 0.021427974 0.20500001 13866649
-0.011681203 0.021427974 0.20500001 13602194
-0.010664918 0.021323448 0.20400001 14915998
-0.0097056171 0.021323448 0.20400001 15902121
-0.0087463139 0.021323448 0.20400001 16494256
-0.007787012 0.021323448 0.20400001 16626612
-0.0068611787 0.021427974 0.20500001 14588058
-0.0058684074 0.021323448 0.20400001 16766941
-0.0049091051 0.021323448 0.20400001 16764376
-0.0039304411 0.02121892 0.20300001 16565198
-0.0029758413 0.02121892 0.20300001 13734811
-0.0020212415 0.02121892 0.20300001 13274260
-0.0010666418 0.02121892 0.20300001 13670554
-0.00011204195 0.02121892 0.20300001 14326169
0.00084255781 0.02121892 0.20300001 14522265
0.0017971577 0.02121892 0.20300001 16764879
0.0027517574 0.02121892 0.20300001 16764106
0.0037063572 0.02121892 0.20300001 16697032
0.004660957 0.02121892 0.20300001 12685457
0.0056155566 0.02121892 0.20300001 12160143
0.0065701571 0.02121892 0.20300001 12881551
0.0075247562 0.02121892 0.20300001 13669784
0.0084793568 0.02121892 0.20300001 13472659
0.0094339559 0.02121892 0.20300001 13801108
0.01033738 0.021114394 0.20200001 14260376
0.011287278 0.021114394 0.20200001 13536653
0.012237174 0.021114394 0.20200001 13732497
0.013187071 0.021114394 0.20200001 14324634
0.014136969 0.021114394 0.20200001 13930900
0.01501218 0.021009866 0.20100001 13997206
0.015957374 0.021009866 0.20100001 14457757
0.016902568 0.021009866 0.20100001 12812932
0.017847763 0.021009866 0.20100001 13602196
0.018792959 0.021009866 0.20100001 13470610
0.019639954 0.02090534 0.2 13404304
0.020580446 0.02090534 0.2 13141643
0.021520939 0.02090534 0.2 12680579
0.022461431 0.02090534 0.2 12220282
0.023401923 0.02090534 0.2 13535888
0.024342416 0.02090534 0.2 16761032
0.025282908 0.02090534 0.2 15971260
0.026092285 0.020800814 0.19900002 16771824
0.027028076 0.020800814 0.19900002 16773619
0.027963866 0.020800814 0.19900002 16772599
0.028899657 0.020800814 0.19900002 14129056
0.029835444 0.020800814 0.19900002 13470095
0.030616604 0.020696288 0.19800001 14062232
0.031547692 0.020696288 0.19800001 14917541
0.03247878 0.020696288 0.19800001 13273749
0.033409867 0.020696288 0.19800001 13669532
0.034340955 0.020696288 0.19800001 16764371
0.035272043 0.020696288 0.19800001 16500684
0.036203127 0.020696288 0.19800001 16765143
0.037134215 0.020696288 0.19800001 13472923
0.038065303 0.020696288 0.19800001 13931159
0.038799442 0.02059176 0.19700001 14391451
0.039725825 0.02059176 0.19700001 14062484
0.040652212 0.02059176 0.19700001 13141895
0.041367538 0.020487234 0.19600001 12682114
0.04228922 0.020487234 0.19600001 12156799
0.042990435 0.020382708 0.19500001 11237496
-0.015461431 0.022282749 0.20400001 10327961
-0.014502128 0.022282749 0.20400001 10387579
-0.013542825 0.022282749 0.20400001 8805465
-0.012583523 0.022282749 0.20400001 12684942
-0.011624222 0.022282749 0.20400001 13669011
-0.010664918 0.022282749 0.20400001 15574953
-0.0097056171 0.022282749 0.20400001 16758455
-0.0087463139 0.022282749 0.20400001 15507361
-0.007787012 0.022282749 0.20400001 14718615
-0.0068611787 0.022391981 0.20500001 15114404
-0.0058684074 0.022282749 0.20400001 16765143
-0.0049091051 0.022282749 0.20400001 16764632
-0.0039304411 0.02217352 0.20300001 15970490
-0.0029758413 0.02217352 0.20300001 14917541
-0.0020212415 0.02217352 0.20300001 14655906
-0.0010666418 0.02217352 0.20300001 13605015
-0.00011204195 0.02217352 0.20300001 15116966
0.00084255781 0.02217352 0.20300001 14391449
0.0017971577 0.02217352 0.20300001 13141384
0.0027517574 0.02217352 0.20300001 13076104
0.0037063572 0.02217352 0.20300001 13603991
0.004660957 0.02217352 0.20300001 12356492
0.0056155566 0.02217352 0.20300001 11962764
0.0065701571 0.02217352 0.20300001 11895941
0.0075247562 0.02217352 0.20300001 12618379
0.0084793568 0.02217352 0.20300001 13012624
0.0094339559 0.02217352 0.20300001 13603477
0.010388555 0.02217352 0.20300001 14129560
0.011287278 0.022064291 0.20200001 13602446
0.012237174 0.022064291 0.20200001 13536138
0.013187071 0.022064291 0.20200001 13601931
0.014136969 0.022064291 0.20200001 13536138
0.01501218 0.021955062 0.20100001 12944516
0.015957374 0.021955062 0.20100001 12681346
0.016902568 0.021955062 0.20100001 12549506
0.017847763 0.021955062 0.20100001 12023934
0.018792959 0.021955062 0.20100001 12945549
0.019738154 0.021955062 0.20100001 13142926
0.020683348 0.021955062 0.20100001 13208206
0.021628544 0.021955062 0.20100001 13011340
0.022573739 0.021955062 0.20100001 13340046
0.023518933 0.021955062 0.20100001 13339276
0.024464127 0.021955062 0.20100001 13207436
0.025282908 0.021845832 0.2 14851750
0.026223401 0.021845832 0.2 15049388
0.027163893 0.021845832 0.2 14458023
0.028104385 0.021845832 0.2 14655400
0.028899657 0.021736605 0.19900002 14786468
0.029835444 0.021736605 0.19900002 14523037
0.030771235 0.021736605 0.19900002 16431034
0.031707026 0.021736605 0.19900002 15445683
0.032642815 0.021736605 0.19900002 13801890
0.033409867 0.021627376 0.19800001 14723505
0.034340955 0.021627376 0.19800001 16764630
0.035272043 0.021627376 0.19800001 16499914
0.036203127 0.021627376 0.19800001 16764885
0.037134215 0.021627376 0.19800001 16104643
0.038065303 0.021627376 0.19800001 12419205
0.038996391 0.021627376 0.19800001 13669524
0.039927479 0.021627376 0.19800001 13274251
0.040652212 0.021518147 0.19700001 12551555
0.041367538 0.021408917 0.19600001 11499639
0.04228922 0.021408917 0.19600001 11434875
0.042990435 0.021299688 0.19500001 9528936
-0.012583523 0.023242053 0.20400001 6177860
-0.011624222 0.023242053 0.20400001 10450808
-0.010664918 0.023242053 0.20400001 11762811
-0.0097056171 0.023242053 0.20400001 12945286
-0.0087463139 0.023242053 0.20400001 13272196
-0.007787012 0.023242053 0.20400001 14193298
-0.0068611787 0.023355985 0.20500001 13468807
-0.0058684074 0.023242053 0.20400001 14258323
-0.0049091051 0.023242053 0.20400001 14193302
-0.0039498028 0.023242053 0.20400001 13996693
-0.0029905008 0.023242053 0.20400001 14128277
-0.0020311985 0.023242053 0.20400001 14326939
-0.0010718962 0.023242053 0.20400001 12091776
-0.00011259389 0.023242053 0.20400001 13407382
0.00084670831 0.023242053 0.20400001 12748168
0.0018060107 0.023242053 0.20400001 12945288
0.002765313 0.023242053 0.20400001 13076874
0.0037246151 0.023242053 0.20400001 13472659
0.0046839174 0.023242053 0.20400001 13277079
0.0056432197 0.023242053 0.20400001 11764355
0.0065701571 0.02312812 0.20300001 12158600
0.0075247562 0.02312812 0.20300001 12815758
0.0084793568 0.02312812 0.20300001 13209233
0.0094339559 0.02312812 0.20300001 12945547
0.010388555 0.02312812 0.20300001 13471632
0.011343156 0.02312812 0.20300001 13405839
0.012297755 0.02312812 0.20300001 13405067
0.013187071 0.02301419 0.20200001 13470860
0.014136969 0.02301419 0.20200001 12878723
0.015086867 0.02301419 0.20200001 12549758
0.016036766 0.02301419 0.20200001 12483967
0.016986661 0.02301419 0.20200001 12615553
0.017936559 0.02301419 0.20200001 12353410
0.018886456 0.02301419 0.20200001 12353410
0.019836355 0.02301419 0.20200001 12551303
0.02078625 0.02301419 0.20200001 12814475
0.021736149 0.02301419 0.20200001 12617096
0.022686046 0.02301419 0.20200001 13472145
0.023635944 0.02301419 0.20200001 13406352
0.024585839 0.02301419 0.20200001 13340046
0.025409322 0.022900257 0.20100001 13536401
0.026354518 0.022900257 0.20100001 14260896
0.027163893 0.022786325 0.2 14918572
0.028104385 0.022786325 0.2 14458275
0.02904488 0.022786325 0.2 13997722
0.029985368 0.022786325 0.2 13668757
0.030925861 0.022786325 0.2 14721960
0.031866353 0.022786325 0.2 13539229
0.032806847 0.022786325 0.2 14065573
0.033578604 0.022672396 0.19900002 13868196
0.034514397 0.022672396 0.19900002 12486028
0.035450187 0.022672396 0.19900002 12485512
0.036385972 0.022672396 0.19900002 11695996
0.037321765 0.022672396 0.19900002 11433594
0.038257554 0.022672396 0.19900002 11564408
0.039193343 0.022672396 0.19900002 11103857
0.040129136 0.022672396 0.19900002 11301236
0.040858567 0.022558464 0.19800001 11368312
0.041578598 0.022444531 0.19700001 11105912
0.04228922 0.022330599 0.19600001 8673116
-0.010664918 0.024201356 0.20400001 8545125
-0.0097056171 0.024201356 0.20400001 12488590
-0.0087463139 0.024201356 0.20400001 11762811
-0.007787012 0.024201356 0.20400001 12353151
-0.0068611787 0.02431999 0.20500001 13075589
-0.0058971741 0.02431999 0.20500001 13141382
-0.0049091051 0.024201356 0.20400001 12812930
-0.0039498028 0.024201356 0.20400001 13339276
-0.0029905008 0.024201356 0.20400001 13405839
-0.0020311985 0.024201356 0.20400001 13340559
-0.0010718962 0.024201356 0.20400001 11829633
-0.00011259389 0.024201356 0.20400001 12290445
0.00084670831 0.024201356 0.20400001 12157830
0.0018060107 0.024201356 0.20400001 12682889
0.002765313 0.024201356 0.20400001 12748936
0.0037246151 0.024201356 0.20400001 13209487
0.0046839174 0.024201356 0.20400001 13407382
0.0056432197 0.024201356 0.20400001 12486795
0.0066025225 0.024201356 0.20400001 12420748
0.0075618243 0.024201356 0.20400001 12946833
0.0085211266 0.024201356 0.20400001 13406098
0.0094804289 0.024201356 0.20400001 13340305
0.01043973 0.024201356 0.20400001 13406098
0.011343156 0.024082722 0.20300001 13340305
0.012297755 0.024082722 0.20300001 13143440
0.013252354 0.024082722 0.20300001 12880270
0.014206954 0.024082722 0.20300001 12485512
0.015161554 0.024082722 0.20300001 12353410
0.016116155 0.024082722 0.20300001 12879241
0.017070753 0.024082722 0.20300001 12813702
0.018025354 0.024082722 0.20300001 12748936
0.018979954 0.024082722 0.20300001 12880522
0.019934554 0.024082722 0.20300001 12881292
0.020889154 0.024082722 0.20300001 12420741
0.021843754 0.024082722 0.20300001 12748682
0.022798354 0.024082722 0.20300001 12353924
0.023752954 0.024082722 0.20300001 12814475
0.024707552 0.024082722 0.20300001 12682889
0.025535738 0.023964087 0.20200001 12156545
0.026485635 0.023964087 0.20200001 12090754
0.027299713 0.023845453 0.20100001 11893375
0.028244909 0.023845453 0.20100001 12024447
0.029190104 0.023845453 0.20100001 13339794
0.030135296 0.023845453 0.20100001 13208208
0.031080492 0.023845453 0.20100001 11958654
0.032025687 0.023845453 0.20100001 11695996
0.032970883 0.023845453 0.20100001 12090754
0.033747341 0.023726819 0.2 11761789
0.034687832 0.023726819 0.2 11827582
0.035628326 0.023726819 0.2 12025731
0.036568817 0.023726819 0.2 12025731
0.037509307 0.023726819 0.2 12025731
0.038449802 0.023726819 0.2 12025729
0.039390292 0.023726819 0.2 11236213
0.040330786 0.023726819 0.2 11368312
0.040858567 0.023489552 0.19800001 10711667
0.041578598 0.023370918 0.19700001 10054767
-0.0097056171 0.025160657 0.20400001 5125690
-0.0087463139 0.025160657 0.20400001 10714495
-0.007787012 0.025160657 0.20400001 11435390
-0.0068611787 0.025283994 0.20500001 12682889
-0.0058971741 0.025283994 0.20500001 13208973
-0.0049331691 0.025283994 0.20500001 13143178
-0.0039691646 0.025283994 0.20500001 12682627
-0.00300516 0.025283994 0.20500001 12682629
-0.0020411552 0.025283994 0.20500001 12551557
-0.0010771506 0.025283994 0.20500001 12158600
-0.00011314582 0.025283994 0.20500001 12093580
0.00085085887 0.025283994 0.20500001 12488078
0.0018148638 0.025283994 0.20500001 12290186
0.0027788684 0.025283994 0.20500001 12682889
0.003742873 0.025283994 0.20500001 13077647
0.0047068777 0.025283994 0.20500001 12617096
0.0056708823 0.025283994 0.20500001 12485510
0.0066348878 0.025283994 0.20500001 12748682
0.0075988919 0.025283994 0.20500001 12880268
0.0085628973 0.025283994 0.20500001 13340305
0.0095269019 0.025283994 0.20500001 13340305
0.01043973 0.025160657 0.20400001 13669270
0.011399033 0.025160657 0.20400001 13472405
0.012358335 0.025160657 0.20400001 11697025
0.013317637 0.025160657 0.20400001 12355727
0.014276939 0.025160657 0.20400001 12093582
0.015236243 0.025160657 0.20400001 12618127
0.016195545 0.025160657 0.20400001 12682889
0.017154846 0.025160657 0.20400001 12353924
0.01811415 0.025160657 0.20400001 12552073
0.019073451 0.025160657 0.20400001 12881551
0.020032754 0.025160657 0.20400001 12552586
0.020992056 0.025160657 0.20400001 12486793
0.021951359 0.025160657 0.20400001 12946833
0.02291066 0.025160657 0.20400001 11959938
0.023869963 0.025160657 0.20400001 12156547
0.024829265 0.025160657 0.20400001 12748682
0.025662152 0.02503732 0.20300001 12617096
0.026616752 0.02503732 0.20300001 12222338
0.027435534 0.024913983 0.20200001 11893373
0.028385431 0.024913983 0.20200001 11827580
0.029335327 0.024913983 0.20200001 11893373
0.030285222 0.024913983 0.20200001 11892859
0.031235121 0.024913983 0.20200001 11630201
0.032185018 0.024913983 0.20200001 11695994
0.033134915 0.024913983 0.20200001 12024959
0.033916079 0.024790647 0.20100001 11894145
0.03486127 0.024790647 0.20100001 11894145
0.035806466 0.024790647 0.20100001 11499900
0.036751658 0.024790647 0.20100001 10974839
0.037696853 0.024790647 0.20100001 11040632
0.038642049 0.024790647 0.20100001 11171964
0.039587244 0.024790647 0.20100001 11369343
0.04053244 0.024790647 0.20100001 11237757
0.041064925 0.024543975 0.19900002 9988976
0.041789655 0.024420638 0.19800001 8411229
-0.0087463139 0.026119959 0.20400001 4535612
-0.0078251837 0.026247997 0.20500001 10913158
-0.0068611787 0.026247997 0.20500001 11501181
-0.0058971741 0.026247997 0.20500001 12552327
-0.0049572336 0.026376037 0.20600002 13143694
-0.0039885263 0.026376037 0.20600002 13341071
-0.0030198193 0.026376037 0.20600002 13472145
-0.0020511122 0.026376037 0.20600002 13340559
-0.001082405 0.026376037 0.20600002 12946831
-0.00011369775 0.026376037 0.20600002 11500668
0.00085500942 0.026376037 0.20600002 11961734
0.0018237167 0.026376037 0.20600002 11631486
0.0027924238 0.026376037 0.20600002 12024959
0.0037611309 0.026376037 0.20600002 12353410
0.0047298381 0.026376037 0.20600002 12353410
0.0056985454 0.026376037 0.20600002 12419203
0.0066672531 0.026376037 0.20600002 13405585
0.0076359599 0.026376037 0.20600002 13471378
0.0086046671 0.026376037 0.20600002 13471378
0.0095733739 0.026376037 0.20600002 13931159
0.010490905 0.026247997 0.20500001 13142928
0.011454911 0.026247997 0.20500001 12683407
0.012418916 0.026247997 0.20500001 11434623
0.01338292 0.026247997 0.20500001 11171966
0.014346925 0.026247997 0.20500001 12160658
0.01531093 0.026247997 0.20500001 12158346
0.016274935 0.026247997 0.20500001 13012626
0.017238939 0.026247997 0.20500001 12090754
0.018202944 0.026247997 0.20500001 11433853
0.019166948 0.026247997 0.20500001 11565439
0.020130955 0.026247997 0.20500001 12224139
0.021094957 0.026247997 0.20500001 12026760
0.022058962 0.026247997 0.20500001 12027014
0.023022968 0.026247997 0.20500001 12026244
0.023986973 0.026247997 0.20500001 11697279
0.024950977 0.026247997 0.20500001 11959938
0.025788568 0.026119959 0.20400001 12617866
0.026747869 0.026119959 0.20400001 12353924
0.027571352 0.025991919 0.20300001 12485510
0.028525952 0.025991919 0.20300001 12551303
0.029480552 0.025991919 0.20300001 12551303
0.03043515 0.025991919 0.20300001 11827580
0.031389751 0.025991919 0.20300001 11433592
0.032344349 0.025991919 0.20300001 11302006
0.033298951 0.025991919 0.20300001 11565693
0.034084816 0.02586388 0.20200001 11960451
0.035034712 0.02586388 0.20200001 12027014
0.035984609 0.02586388 0.20200001 11172218
0.036934502 0.02586388 0.20200001 10777974
0.037884403 0.02586388 0.20200001 10843767
0.0388343 0.02586388 0.20200001 10843513
0.039784197 0.02586388 0.20200001 10120560
0.040734094 0.02586388 0.20200001 8673114
0.04127128 0.0256078 0.2 8016469
-0.0078251837 0.027212001 0.20500001 4206645
-0.0068946481 0.027344745 0.20600002 9662321
-0.0059259408 0.027344745 0.20600002 11238523
-0.0049572336 0.027344745 0.20600002 11698814
-0.0039885263 0.027344745 0.20600002 11566461
-0.0030344788 0.027477486 0.20700002 12683659
-0.002061069 0.027477486 0.20700002 12946831
-0.0010876594 0.027477486 0.20700002 12683659
-0.00011424968 0.027477486 0.20700002 12157315
0.00085915992 0.027477486 0.20700002 11762557
0.0018325697 0.027477486 0.20700002 11695994
0.0028059795 0.027477486 0.20700002 11892346
0.003779389 0.027477486 0.20700002 12419203
0.0047527985 0.027477486 0.20700002 13274512
0.0057262084 0.027477486 0.20700002 13340819
0.0066996184 0.027477486 0.20700002 13538198
0.0076730275 0.027477486 0.20700002 13603477
0.0086464379 0.027477486 0.20700002 12945547
0.0096198469 0.027477486 0.20700002 13011342
0.010542081 0.027344745 0.20600002 12747657
0.011510788 0.027344745 0.20600002 12682123
0.012479495 0.027344745 0.20600002 11827328
0.013448202 0.027344745 0.20600002 11500416
0.01441691 0.027344745 0.20600002 11962766
0.015385618 0.027344745 0.20600002 11566213
0.016354324 0.027344745 0.20600002 13011604
0.017323032 0.027344745 0.20600002 12157063
0.01829174 0.027344745 0.20600002 11433853
0.019260446 0.027344745 0.20600002 11828611
0.020229153 0.027344745 0.20600002 11631232
0.021094957 0.027212001 0.20500001 11499900
0.022058962 0.027212001 0.20500001 11369084
0.023135275 0.027344745 0.20600002 11303291
0.024103982 0.027344745 0.20600002 11369084
0.025072688 0.027344745 0.20600002 11895428
0.025914982 0.027212001 0.20500001 11763842
0.026878987 0.027212001 0.20500001 12355209
0.027707173 0.02707926 0.20400001 12486795
0.028666476 0.02707926 0.20400001 12617866
0.029625777 0.02707926 0.20400001 12223108
0.030585077 0.02707926 0.20400001 11959936
0.03154438 0.02707926 0.20400001 11630973
0.032503683 0.02707926 0.20400001 11368060
0.033462986 0.02707926 0.20400001 11237244
0.03442229 0.02707926 0.20400001 11566209
0.035381589 0.02707926 0.20400001 11369857
0.036340892 0.02707926 0.20400001 11238271
0.037300192 0.02707926 0.20400001 11040892
0.038259495 0.02707926 0.20400001 10382962
0.039218798 0.02707926 0.20400001 9791595
0.039981149 0.026946519 0.20300001 9199458
0.040935747 0.026946519 0.20300001 8937569
0.041477636 0.026681036 0.20100001 8345945
-0.0068946481 0.028313452 0.20600002 4535861
-0.0059547075 0.028450895 0.20700002 6769484
-0.004981298 0.028450895 0.20700002 11635082
-0.004007888 0.028450895 0.20700002 11766152
-0.0030491378 0.028588338 0.208 12290697
-0.0020710258 0.028588338 0.208 11960449
-0.0010929137 0.028588338 0.208 11762557
-0.00011480161 0.028588338 0.208 11894143
0.00086331042 0.028588338 0.208 12288131
0.0018414226 0.028588338 0.208 12221824
0.0028195346 0.028588338 0.208 12287617
0.0037976466 0.028588338 0.208 12880268
0.0047757588 0.028588338 0.208 13275026
0.0057538706 0.028588338 0.208 13472405
0.0067319833 0.028588338 0.208 13144212
0.007710095 0.028588338 0.208 12947346
0.0086882077 0.028588338 0.208 12881040
0.009666319 0.028588338 0.208 12420489
0.010593256 0.028450895 0.20700002 12486282
0.011566667 0.028450895 0.20700002 12485512
0.012540076 0.028450895 0.20700002 12485512
0.013513485 0.028450895 0.20700002 12025731
0.014486895 0.028450895 0.20700002 12027789
0.015460305 0.028450895 0.20700002 11304068
0.016433716 0.028450895 0.20700002 11433342
0.017407123 0.028450895 0.20700002 11959684
0.018380534 0.028450895 0.20700002 11696512
0.019353945 0.028450895 0.20700002 11499133
0.020327354 0.028450895 0.20700002 11302008
0.021197861 0.028313452 0.20600002 11433594
0.022166567 0.028313452 0.20600002 11236728
0.023247583 0.028450895 0.20700002 11500670
0.024220992 0.028450895 0.20700002 11830148
0.025194401 0.028450895 0.20700002 11633283
0.026041396 0.028313452 0.20600002 11370111
0.027010104 0.028313452 0.20600002 11895174
0.027842993 0.028176008 0.20500001 12157576
0.028806997 0.028176008 0.20500001 12552588
0.029771002 0.028176008 0.20500001 12552588
0.030735005 0.028176008 0.20500001 12025731
0.031699009 0.028176008 0.20500001 11368314
0.032663014 0.028176008 0.20500001 11369084
0.033627018 0.028176008 0.20500001 11434877
0.034591027 0.028176008 0.20500001 11172218
0.035555031 0.028176008 0.20500001 11040378
0.036519036 0.028176008 0.20500001 10843513
0.037483037 0.028176008 0.20500001 10909308
0.038634591 0.028313452 0.20600002 9660011
0.039603297 0.028313452 0.20600002 9265251
0.040572006 0.028313452 0.20600002 8870493
0.041339058 0.028176008 0.20500001 8279639
-0.0059547075 0.029424306 0.20700002 3877931
-0.004981298 0.029424306 0.20700002 5455421
-0.0040272498 0.02956645 0.208 10452605
-0.0030491378 0.02956645 0.208 11241091
-0.0020809826 0.029708598 0.20900001 11502978
-0.0010981681 0.029708598 0.20900001 12487565
-0.00011535354 0.029708598 0.20900001 12355979
0.00086746097 0.029708598 0.20900001 12355207
0.0018502757 0.029708598 0.20900001 11697277
0.0028330903 0.029708598 0.20900001 12157828
0.0038159045 0.029708598 0.20900001 12354694
0.0047987192 0.029708598 0.20900001 12617866
0.0057815337 0.029708598 0.20900001 12749452
0.0067643486 0.029708598 0.20900001 12749452
0.0077471626 0.029708598 0.20900001 11894656
0.0087299775 0.029708598 0.20900001 12487563
0.009712792 0.029708598 0.20900001 12158598
0.010644431 0.02956645 0.208 11105142
0.011622543 0.02956645 0.208 11434107
0.012600655 0.02956645 0.208 11696766
0.013578767 0.02956645 0.208 12749454
0.014556879 0.02956645 0.208 12224654
0.015534991 0.02956645 0.208 11961998
0.016513104 0.02956645 0.208 11301754
0.017491216 0.02956645 0.208 11104375
0.018469328 0.02956645 0.208 11697025
0.01944744 0.02956645 0.208 12486028
0.020425553 0.02956645 0.208 12618381
0.021300763 0.029424306 0.20700002 11499900
0.022274172 0.029424306 0.20700002 12355209
0.023359889 0.02956645 0.208 12421772
0.024338001 0.02956645 0.208 12159113
0.025316112 0.02956645 0.208 11501183
0.026167812 0.029424306 0.20700002 11435390
0.027141221 0.029424306 0.20700002 11172218
0.028114632 0.029424306 0.20700002 11632515
0.029088041 0.029424306 0.20700002 11764101
0.030061452 0.029424306 0.20700002 11501183
0.031034859 0.029424306 0.20700002 11566463
0.032008268 0.029424306 0.20700002 11501183
0.032981679 0.029424306 0.20700002 11764355
0.03395509 0.029424306 0.20700002 11567490
0.034928501 0.029424306 0.20700002 11238525
0.035901908 0.029424306 0.20700002 11041146
0.036875319 0.029424306 0.20700002 9989228
0.038031567 0.02956645 0.208 9528938
0.039009679 0.02956645 0.208 9002594
0.039987791 0.02956645 0.208 8871008
0.040768955 0.029424306 0.20700002 8609117
0.041339058 0.029140012 0.20500001 8149850
-0.0030637973 0.030691411 0.20900001 8085342
-0.0020809826 0.030691411 0.20900001 9793905
-0.0011034225 0.03083826 0.21000001 9923694
-0.00011590547 0.03083826 0.21000001 11435388
0.00087161153 0.03083826 0.21000001 11961732
0.0018591286 0.03083826 0.21000001 11764094
0.0028466457 0.03083826 0.21000001 12026242
0.0038341626 0.03083826 0.21000001 12684172
0.0048216796 0.03083826 0.21000001 12157315
0.0058091967 0.03083826 0.21000001 12024959
0.0067967139 0.03083826 0.21000001 11696764
0.0077842306 0.03083826 0.21000001 11828863
0.0087717483 0.03083826 0.21000001 11040119
0.009759265 0.03083826 0.21000001 10974326
0.010695606 0.030691411 0.20900001 10974326
0.011678421 0.030691411 0.20900001 11960451
0.012661235 0.030691411 0.20900001 11566461
0.013644049 0.030691411 0.20900001 11763840
0.014626864 0.030691411 0.20900001 11764355
0.01560968 0.030691411 0.20900001 11830408
0.016592495 0.030691411 0.20900001 11894658
0.017575307 0.030691411 0.20900001 11631486
0.018558122 0.030691411 0.20900001 11895174
0.019540938 0.030691411 0.20900001 11566209
0.020523753 0.030691411 0.20900001 11500416
0.021506567 0.030691411 0.20900001 12224393
0.02248938 0.030691411 0.20900001 12092037
0.023472195 0.030691411 0.20900001 12157830
0.024455011 0.030691411 0.20900001 11369084
0.025437824 0.030691411 0.20900001 11763842
0.02642064 0.030691411 0.20900001 11698049
0.027272336 0.030544562 0.208 11501183
0.028250448 0.030544562 0.208 11435390
0.029228562 0.030544562 0.208 11632769
0.030206675 0.030544562 0.208 11633283
0.031184783 0.030544562 0.208 11764869
0.032162897 0.030544562 0.208 11567490
0.03314101 0.030544562 0.208 11107709
0.034283157 0.030691411 0.20900001 10186353
0.035265971 0.030691411 0.20900001 10186353
0.036248785 0.030691411 0.20900001 9660009
0.037231602 0.030691411 0.20900001 9792108
0.038397256 0.03083826 0.21000001 9332327
0.039384775 0.03083826 0.21000001 9004389
0.040180042 0.030691411 0.20900001 8347231
0.040965904 0.030544562 0.208 7821400
-0.0030637973 0.031674229 0.20900001 3087386
-0.0021008963 0.031977329 0.21100001 6571851
-0.0011086769 0.031977329 0.21100001 9596528
-0.00011645741 0.031977329 0.21100001 9398120
0.00087576202 0.031977329 0.21100001 11501697
0.0018679816 0.031977329 0.21100001 12093834
0.0028602011 0.031977329 0.21100001 11632769
0.0038524205 0.031977329 0.21100001 11566463
0.0048446399 0.031977329 0.21100001 11697279
0.0058368593 0.031977329 0.21100001 11631486
0.0068290792 0.031977329 0.21100001 11631486
0.0078212982 0.031977329 0.21100001 11369084
0.0088135181 0.031977329 0.21100001 10908533
0.009759265 0.031825777 0.21000001 10447982
0.010746782 0.031825777 0.21000001 11763842
0.011734298 0.031825777 0.21000001 11961732
0.012721815 0.031825777 0.21000001 11829633
0.013709332 0.031825777 0.21000001 11434875
0.01469685 0.031825777 0.21000001 11501443
0.015684366 0.031825777 0.21000001 11436420
0.016671885 0.031825777 0.21000001 11632769
0.0176594 0.031825777 0.21000001 11237496
0.018646918 0.031825777 0.21000001 11434875
0.019634435 0.031825777 0.21000001 11632769
0.020621952 0.031825777 0.21000001 11237244
0.021609468 0.031825777 0.21000001 12026760
0.02270459 0.031977329 0.21100001 12026760
0.02369681 0.031977329 0.21100001 11961221
0.02468903 0.031977329 0.21100001 11895428
0.025559537 0.031825777 0.21000001 11895428
0.026547054 0.031825777 0.21000001 11632769
0.027534571 0.031825777 0.21000001 11369597
0.028386269 0.031674229 0.20900001 11172478
0.029369084 0.031674229 0.20900001 10778490
0.0303519 0.031674229 0.20900001 10449525
0.031334709 0.031674229 0.20900001 10449525
0.032317527 0.031674229 0.20900001 11173502
0.03330034 0.031674229 0.20900001 11042429
0.034447189 0.031825777 0.21000001 10384245
0.035603445 0.031977329 0.21100001 9792108
0.036595665 0.031977329 0.21100001 9003364
0.037587885 0.031977329 0.21100001 8938086
0.038580101 0.031977329 0.21100001 8872807
0.039572321 0.031977329 0.21100001 8281440
0.040372293 0.031825777 0.21000001 7098449
0.041359808 0.031825777 0.21000001 6047304
-0.0021008963 0.032969549 0.21100001 3089185
-0.0011139313 0.033125803 0.21200001 4139561
-0.00011700934 0.033125803 0.21200001 6703691
0.00087991258 0.033125803 0.21200001 8214873
0.0018768347 0.033125803 0.21200001 9265764
0.0028737567 0.033125803 0.21200001 10646904
0.0038706784 0.033125803 0.21200001 10910076
0.0048676003 0.033125803 0.21200001 11107455
0.0058645224 0.033125803 0.21200001 11370627
0.0068614446 0.033125803 0.21200001 11633283
0.0078583667 0.033125803 0.21200001 11699076
0.0088552888 0.033125803 0.21200001 11830662
0.0098057371 0.032969549 0.21100001 11435390
0.010746782 0.032813296 0.21000001 11369597
0.011734298 0.032813296 0.21000001 11830148
0.012721815 0.032813296 0.21000001 11764869
0.013709332 0.032813296 0.21000001 11699076
0.01469685 0.032813296 0.21000001 11370627
0.015759055 0.032969549 0.21100001 11305351
0.016751274 0.032969549 0.21100001 10844800
0.017743492 0.032969549 0.21100001 11041664
0.018824508 0.033125803 0.21200001 11040894
0.01982143 0.033125803 0.21200001 11567490
0.020818353 0.033125803 0.21200001 11764355
0.021815274 0.033125803 0.21200001 11632769
0.022812195 0.033125803 0.21200001 11633799
0.023809118 0.033125803 0.21200001 11370627
0.024806039 0.033125803 0.21200001 11502467
0.025802961 0.033125803 0.21200001 11173502
0.026799884 0.033125803 0.21200001 11173502
0.027665688 0.032969549 0.21100001 10844796
0.028522089 0.032813296 0.21000001 10779773
0.029509606 0.032813296 0.21000001 10582394
0.0303519 0.032657042 0.20900001 10648700
0.031334709 0.032657042 0.20900001 10253942
0.032317527 0.032657042 0.20900001 9792880
0.033459675 0.032813296 0.21000001 9332842
0.034611225 0.032969549 0.21100001 9004391
0.035772182 0.033125803 0.21200001 8610403
0.036769103 0.033125803 0.21200001 8347231
0.037766028 0.033125803 0.21200001 7820887
0.038762946 0.033125803 0.21200001 7491924
0.039572321 0.032969549 0.21100001 7230294
0.040564541 0.032969549 0.21100001 5785164
-0.0011139313 0.034122728 0.21200001 3090466
-0.00011700934 0.034122728 0.21200001 3286564
0.00087991258 0.034122728 0.21200001 4731698
0.0018768347 0.034122728 0.21200001 7427412
0.0028737567 0.034122728 0.21200001 9465712
0.0038706784 0.034122728 0.21200001 9070954
0.0048676003 0.034122728 0.21200001 10451325
0.0058645224 0.034122728 0.21200001 10780290
0.0068614446 0.034122728 0.21200001 11502726
0.0078583667 0.034122728 0.21200001 11436933
0.0088552888 0.034122728 0.21200001 11370627
0.0098057371 0.033961769 0.21100001 11370627
0.010746782 0.033800814 0.21000001 11239295
0.011734298 0.033800814 0.21000001 10778744
0.012721815 0.033800814 0.21000001 10910330
0.013709332 0.033800814 0.21000001 10581365
0.01469685 0.033800814 0.21000001 10582396
0.015759055 0.033961769 0.21100001 11175046
0.016830664 0.034122728 0.21200001 11700879
0.017827585 0.034122728 0.21200001 10581628
0.018913303 0.034283683 0.21300001 10711929
0.019914927 0.034283683 0.21300001 11633029
0.021014752 0.034444641 0.21400002 11436420
0.022021078 0.034444641 0.21400002 11107968
0.023027405 0.034444641 0.21400002 10121073
0.024033733 0.034444641 0.21400002 10384247
0.02504006 0.034444641 0.21400002 10252661
0.026046386 0.034444641 0.21400002 10713212
0.027052714 0.034444641 0.21400002 10581626
0.027665688 0.033961769 0.21100001 10385017
0.028522089 0.033800814 0.21000001 9925493
0.029509606 0.033800814 0.21000001 10122872
0.030497124 0.033800814 0.21000001 9925491
0.031484637 0.033800814 0.21000001 9859700
0.032472156 0.033800814 0.21000001 9069670
0.033459675 0.033800814 0.21000001 8413024
0.034611225 0.033961769 0.21100001 8151137
0.035772182 0.034122728 0.21200001 7362650
0.036942545 0.034283683 0.21300001 6836820
0.037944168 0.034283683 0.21300001 7100505
0.038762946 0.034122728 0.21200001 7561056
0.0018768347 0.035119645 0.21200001 2168599
0.0028737567 0.035119645 0.21200001 2759452
0.0038706784 0.035119645 0.21200001 6705234
0.0048676003 0.035119645 0.21200001 8809326
0.0058645224 0.035119645 0.21200001 10124157
0.0068614446 0.035119645 0.21200001 9728882
0.0078954343 0.035285305 0.21300001 9925491
0.0088552888 0.035119645 0.21200001 10254456
0.0098057371 0.034953985 0.21100001 10451321
0.010746782 0.034788329 0.21000001 10451323
0.011734298 0.034788329 0.21000001 10517116
0.012721815 0.034788329 0.21000001 10714495
0.013709332 0.034788329 0.21000001 10846079
0.01469685 0.034788329 0.21000001 10846079
0.015759055 0.034953985 0.21100001 11175560
0.016830664 0.035119645 0.21200001 10386044
0.017827585 0.035119645 0.21200001 10713982
0.018913303 0.035285305 0.21300001 10582394
0.020008424 0.035450965 0.21400002 10582394
0.021112951 0.035616621 0.215 10516601
0.022123979 0.035616621 0.215 10385015
0.023135008 0.035616621 0.215 10121843
0.024146039 0.035616621 0.215 10779773
0.025157068 0.035616621 0.215 10517116
0.026168097 0.035616621 0.215 10911874
0.027179126 0.035616621 0.215 10780286
0.037115984 0.035450965 0.21400002 4340800
0.038300451 0.035616621 0.215 4472899
0.0058645224 0.036116567 0.21200001 3877682
0.0078954343 0.036286931 0.21300001 6705749
0.0088970587 0.036286931 0.21300001 10851478
0.0098057371 0.035946205 0.21100001 11904166
0.010746782 0.035775844 0.21000001 9928061
0.012661235 0.035605483 0.20900001 10123640
0.013709332 0.035775844 0.21000001 10453118
0.01469685 0.035775844 0.21000001 10322302
0.015759055 0.035946205 0.21100001 10454405
0.016830664 0.036116567 0.21200001 10322819
0.017827585 0.036116567 0.21200001 10059132
0.018913303 0.036286931 0.21300001 10386812
0.020008424 0.036457293 0.21400002 10584191
0.021112951 0.03662765 0.215 10649984
0.022226881 0.036798012 0.21600001 10584704
0.023242613 0.036798012 0.21600001 10847876
0.024258345 0.036798012 0.21600001 10650497
0.025274077 0.036798012 0.21600001 10321532
0.026289809 0.036798012 0.21600001 9860983
0.027179126 0.03662765 0.215 10650501
0.015759055 0.036938425 0.21100001 9666183
0.016830664 0.037113491 0.21200001 10587285
0.017827585 0.037113491 0.21200001 10323335
0.018913303 0.037288554 0.21300001 10849159
0.020008424 0.03746362 0.21400002 10848646
0.021112951 0.037638679 0.215 10322302
0.022226881 0.037813745 0.21600001 10585987
0.023242613 0.037813745 0.21600001 10257796
0.024258345 0.037813745 0.21600001 10192003
0.025274077 0.037813745 0.21600001 10126983
0.026289809 0.037813745 0.21600001 8877435
