# .PCD v0.7 - Point Cloud Data file format
VERSION 0.7
FIELDS x y z rgb
SIZE 4 4 4 4
TYPE F F F U
COUNT 1 1 1 1
WIDTH 1066
HEIGHT 1
VIEWPOINT 0 0 0 1 0 0 0
POINTS 1066
DATA ascii
-9.8795615e-05 -0.0023332373 0.17900001 14064028
0.00074294501 -0.0023332373 0.17900001 13208460
0.0015846859 -0.0023332373 0.17900001 15776443
0.0024264266 -0.0023332373 0.17900001 15711420
0.0032681671 -0.0023332373 0.17900001 15908799
0.0041099079 -0.0023332373 0.17900001 16171719
0.0049516484 -0.0023332373 0.17900001 11897486
0.0057933894 -0.0023332373 0.17900001 12093834
0.0066351299 -0.0023332373 0.17900001 12684172
0.0074768709 -0.0023332373 0.17900001 13538198
0.0083186114 -0.0023332373 0.17900001 13340819
0.0091603519 -0.0023332373 0.17900001 14852515
0.010002092 -0.0023332373 0.17900001 14129562
0.010843833 -0.0023332373 0.17900001 13011081
0.011685573 -0.0023332373 0.17900001 15577269
0.012527314 -0.0023332373 0.17900001 13208719
0.013369055 -0.0023332373 0.17900001 13931929
0.014210797 -0.0023332373 0.17900001 14457757
0.015052537 -0.0023332373 0.17900001 14128792
0.015894277 -0.0023332373 0.17900001 14326171
0.016736018 -0.0023332373 0.17900001 14456990
0.01757776 -0.0023332373 0.17900001 12417668
0.018419499 -0.0023332373 0.17900001 14523044
0.019261241 -0.0023332373 0.17900001 16694983
0.020102981 -0.0023332373 0.17900001 13075852
0.020944722 -0.0023332373 0.17900001 12944005
0.021786463 -0.0023332373 0.17900001 12614270
0.022628203 -0.0023332373 0.17900001 12942465
0.023469944 -0.0023332373 0.17900001 12745086
0.024311684 -0.0023332373 0.17900001 14850205
0.025153426 -0.0023332373 0.17900001 14852009
0.025995167 -0.0023332373 0.17900001 13479348
0.026836906 -0.0023332373 0.17900001 16776699
0.027678646 -0.0023332373 0.17900001 16447476
0.028520387 -0.0023332373 0.17900001 16774387
0.029362129 -0.0023332373 0.17900001 16695748
0.03020387 -0.0023332373 0.17900001 15969459
0.03104561 -0.0023332373 0.17900001 15245736
0.031887352 -0.0023332373 0.17900001 14062232
0.032729089 -0.0023332373 0.17900001 14128792
0.03357083 -0.0023332373 0.17900001 13866903
0.03441257 -0.0023332373 0.17900001 12551821
0.035254315 -0.0023332373 0.17900001 16765144
0.036096055 -0.0023332373 0.17900001 16565711
0.036937796 -0.0023332373 0.17900001 16762836
0.037779536 -0.0023332373 0.17900001 15114668
0.038621277 -0.0023332373 0.17900001 14717082
0.039463017 -0.0023332373 0.17900001 15309986
0.040304758 -0.0023332373 0.17900001 15244963
0.041146498 -0.0023332373 0.17900001 14915998
0.041753668 -0.0023202023 0.178 15573928
0.042590704 -0.0023202023 0.178 16034477
0.043427743 -0.0023202023 0.178 16231856
0.044264782 -0.0023202023 0.178 14324888
0.045101821 -0.0023202023 0.178 13013391
0.045938857 -0.0023202023 0.178 11833488
0.0467759 -0.0023202023 0.178 8285549
0.047345445 -0.0023071675 0.177 5590097
-0.016091868 -0.0014914966 0.17900001 5722451
-0.015250128 -0.0014914966 0.17900001 6571851
-0.014408386 -0.0014914966 0.17900001 12290697
-0.013566647 -0.0014914966 0.17900001 12157315
-0.012724906 -0.0014914966 0.17900001 12617096
-0.011883165 -0.0014914966 0.17900001 12616584
-0.011041424 -0.0014914966 0.17900001 13996441
-0.010199684 -0.0014914966 0.17900001 14456992
-0.0093579432 -0.0014914966 0.17900001 14522783
-0.0085162027 -0.0014914966 0.17900001 15048357
-0.0076744617 -0.0014914966 0.17900001 14654369
-0.0068327212 -0.0014914966 0.17900001 13208208
-0.0059909802 -0.0014914966 0.17900001 16764887
-0.0051492397 -0.0014914966 0.17900001 16500686
-0.0043074992 -0.0014914966 0.17900001 16764117
-0.0034657582 -0.0014914966 0.17900001 13208721
-0.0026240177 -0.0014914966 0.17900001 13208719
-0.001782277 -0.0014914966 0.17900001 12881038
-0.00094053627 -0.0014914966 0.17900001 13146008
-9.8795615e-05 -0.0014914966 0.17900001 13341843
0.00074294501 -0.0014914966 0.17900001 13932183
0.0015846859 -0.0014914966 0.17900001 13734804
0.0024264266 -0.0014914966 0.17900001 13210257
0.0032681671 -0.0014914966 0.17900001 13078417
0.0041099079 -0.0014914966 0.17900001 12685203
0.0049516484 -0.0014914966 0.17900001 11898256
0.0057933894 -0.0014914966 0.17900001 11963018
0.0066351299 -0.0014914966 0.17900001 12092037
0.0074768709 -0.0014914966 0.17900001 13011856
0.0083186114 -0.0014914966 0.17900001 13142674
0.0091603519 -0.0014914966 0.17900001 13405587
0.010002092 -0.0014914966 0.17900001 13997206
0.010843833 -0.0014914966 0.17900001 13470349
0.011685573 -0.0014914966 0.17900001 13207177
0.012527314 -0.0014914966 0.17900001 13208460
0.013369055 -0.0014914966 0.17900001 13734804
0.014210797 -0.0014914966 0.17900001 13404815
0.015052537 -0.0014914966 0.17900001 13404815
0.015894277 -0.0014914966 0.17900001 13536401
0.016736018 -0.0014914966 0.17900001 12548225
0.01757776 -0.0014914966 0.17900001 12285823
0.018419499 -0.0014914966 0.17900001 14128027
0.019261241 -0.0014914966 0.17900001 12944005
0.020102981 -0.0014914966 0.17900001 13536142
0.020944722 -0.0014914966 0.17900001 13601935
0.021786463 -0.0014914966 0.17900001 13470349
0.022628203 -0.0014914966 0.17900001 13403786
0.023469944 -0.0014914966 0.17900001 13468555
0.024311684 -0.0014914966 0.17900001 13994647
0.025153426 -0.0014914966 0.17900001 16766436
0.025995167 -0.0014914966 0.17900001 16768743
0.026836906 -0.0014914966 0.17900001 16774647
0.027678646 -0.0014914966 0.17900001 16775927
0.028520387 -0.0014914966 0.17900001 16773114
0.029362129 -0.0014914966 0.17900001 14392230
0.03020387 -0.0014914966 0.17900001 13731727
0.03104561 -0.0014914966 0.17900001 15244709
0.031887352 -0.0014914966 0.17900001 15968689
0.032729089 -0.0014914966 0.17900001 13996439
0.03357083 -0.0014914966 0.17900001 13866138
0.03441257 -0.0014914966 0.17900001 13208981
0.035254315 -0.0014914966 0.17900001 16697295
0.036096055 -0.0014914966 0.17900001 16565711
0.036937796 -0.0014914966 0.17900001 16764118
0.037779536 -0.0014914966 0.17900001 16764631
0.038621277 -0.0014914966 0.17900001 14454677
0.039463017 -0.0014914966 0.17900001 16033194
0.040304758 -0.0014914966 0.17900001 15375777
0.041146498 -0.0014914966 0.17900001 14784412
0.041753668 -0.0014831641 0.178 13205637
0.042590704 -0.0014831641 0.178 13468807
0.043427743 -0.0014831641 0.178 13601933
0.044264782 -0.0014831641 0.178 13013137
-0.016091868 -0.00064975582 0.17900001 10985113
-0.015250128 -0.00064975582 0.17900001 10455939
-0.014408386 -0.00064975582 0.17900001 9004895
-0.013566647 -0.00064975582 0.17900001 10974324
-0.012724906 -0.00064975582 0.17900001 11894143
-0.011883165 -0.00064975582 0.17900001 12879754
-0.011041424 -0.00064975582 0.17900001 13470608
-0.010199684 -0.00064975582 0.17900001 14523296
-0.0093579432 -0.00064975582 0.17900001 14325917
-0.0085162027 -0.00064975582 0.17900001 13667987
-0.0076744617 -0.00064975582 0.17900001 13799827
-0.0068327212 -0.00064975582 0.17900001 14062486
-0.0059909802 -0.00064975582 0.17900001 15510963
-0.0051492397 -0.00064975582 0.17900001 15511476
-0.0043074992 -0.00064975582 0.17900001 14129310
-0.0034657582 -0.00064975582 0.17900001 14128538
-0.0026240177 -0.00064975582 0.17900001 14129308
-0.001782277 -0.00064975582 0.17900001 13407895
-0.00094053627 -0.00064975582 0.17900001 13474458
-9.8795615e-05 -0.00064975582 0.17900001 13670808
0.00074294501 -0.00064975582 0.17900001 13997976
0.0015846859 -0.00064975582 0.17900001 13141897
0.0024264266 -0.00064975582 0.17900001 13076104
0.0032681671 -0.00064975582 0.17900001 13011081
0.0041099079 -0.00064975582 0.17900001 12948116
0.0049516484 -0.00064975582 0.17900001 10385017
0.0057933894 -0.00064975582 0.17900001 12094352
0.0066351299 -0.00064975582 0.17900001 11960197
0.0074768709 -0.00064975582 0.17900001 12486028
0.0083186114 -0.00064975582 0.17900001 12616844
0.0091603519 -0.00064975582 0.17900001 13076622
0.010002092 -0.00064975582 0.17900001 13536401
0.010843833 -0.00064975582 0.17900001 13207177
0.011685573 -0.00064975582 0.17900001 13207177
0.012527314 -0.00064975582 0.17900001 13339276
0.013369055 -0.00064975582 0.17900001 13339276
0.014210797 -0.00064975582 0.17900001 13207436
0.015052537 -0.00064975582 0.17900001 12483713
0.015894277 -0.00064975582 0.17900001 12483713
0.016736018 -0.00064975582 0.17900001 12483454
0.01757776 -0.00064975582 0.17900001 12022903
0.018419499 -0.00064975582 0.17900001 12614788
0.019261241 -0.00064975582 0.17900001 12878725
0.020102981 -0.00064975582 0.17900001 13141643
0.020944722 -0.00064975582 0.17900001 13339022
0.021786463 -0.00064975582 0.17900001 13602448
0.022628203 -0.00064975582 0.17900001 13865107
0.023469944 -0.00064975582 0.17900001 13995923
0.024311684 -0.00064975582 0.17900001 13863313
0.025153426 -0.00064975582 0.17900001 14389148
0.025995167 -0.00064975582 0.17900001 14652577
0.026836906 -0.00064975582 0.17900001 14916773
0.027678646 -0.00064975582 0.17900001 14458275
0.028520387 -0.00064975582 0.17900001 14391462
0.029362129 -0.00064975582 0.17900001 16763355
0.03020387 -0.00064975582 0.17900001 13338772
0.03104561 -0.00064975582 0.17900001 13864083
0.031887352 -0.00064975582 0.17900001 14851750
0.032729089 -0.00064975582 0.17900001 14325665
0.03357083 -0.00064975582 0.17900001 14391458
0.03441257 -0.00064975582 0.17900001 13471126
0.035254315 -0.00064975582 0.17900001 16762062
0.036096055 -0.00064975582 0.17900001 16762834
0.036937796 -0.00064975582 0.17900001 16765407
0.037779536 -0.00064975582 0.17900001 16764121
0.038621277 -0.00064975582 0.17900001 13074567
0.039463017 -0.00064975582 0.17900001 15244193
0.040304758 -0.00064975582 0.17900001 14915996
0.041146498 -0.00064975582 0.17900001 14061716
0.041753668 -0.00064612593 0.178 12746626
0.042590704 -0.00064612593 0.178 13406352
0.043427743 -0.00064612593 0.178 12948116
0.044264782 -0.00064612593 0.178 8083809
-0.016091868 0.00019198484 0.17900001 5525587
-0.015250128 0.00019198484 0.17900001 4999241
-0.014408386 0.00019198484 0.17900001 7889244
-0.013566647 0.00019198484 0.17900001 12029576
-0.012724906 0.00019198484 0.17900001 11369334
-0.011883165 0.00019198484 0.17900001 11894395
-0.011041424 0.00019198484 0.17900001 12222078
-0.010199684 0.00019198484 0.17900001 12287358
-0.0093579432 0.00019198484 0.17900001 12549758
-0.0085162027 0.00019198484 0.17900001 12549245
-0.0076744617 0.00019198484 0.17900001 13075589
-0.0068327212 0.00019198484 0.17900001 13272198
-0.0059909802 0.00019198484 0.17900001 13141130
-0.0051492397 0.00019198484 0.17900001 13535888
-0.0043074992 0.00019198484 0.17900001 13733267
-0.0034657582 0.00019198484 0.17900001 13930900
-0.0026240177 0.00019198484 0.17900001 13800597
-0.001782277 0.00019198484 0.17900001 13144210
-0.00094053627 0.00019198484 0.17900001 12355979
-9.8795615e-05 0.00019198484 0.17900001 12946831
0.00074294501 0.00019198484 0.17900001 12418944
0.0015846859 0.00019198484 0.17900001 12681346
0.0024264266 0.00019198484 0.17900001 12878471
0.0032681671 0.00019198484 0.17900001 13208206
0.0041099079 0.00019198484 0.17900001 13144725
0.0049516484 0.00019198484 0.17900001 9856618
0.0057933894 0.00019198484 0.17900001 11237759
0.0066351299 0.00019198484 0.17900001 12091783
0.0074768709 0.00019198484 0.17900001 12354442
0.0083186114 0.00019198484 0.17900001 12748430
0.0091603519 0.00019198484 0.17900001 12484483
0.010002092 0.00019198484 0.17900001 13141897
0.010843833 0.00019198484 0.17900001 13470862
0.011685573 0.00019198484 0.17900001 13272970
0.012527314 0.00019198484 0.17900001 13141897
0.013369055 0.00019198484 0.17900001 13207690
0.014210797 0.00019198484 0.17900001 13141897
0.015052537 0.00019198484 0.17900001 12548995
0.015894277 0.00019198484 0.17900001 12483200
0.016736018 0.00019198484 0.17900001 12548993
0.01757776 0.00019198484 0.17900001 12220541
0.018419499 0.00019198484 0.17900001 12220543
0.019261241 0.00019198484 0.17900001 12812680
0.020102981 0.00019198484 0.17900001 12813448
0.020944722 0.00019198484 0.17900001 13076620
0.021786463 0.00019198484 0.17900001 13076620
0.022628203 0.00019198484 0.17900001 13602448
0.023469944 0.00019198484 0.17900001 14061716
0.024311684 0.00019198484 0.17900001 14258325
0.025153426 0.00019198484 0.17900001 14126739
0.025995167 0.00019198484 0.17900001 15112353
0.026836906 0.00019198484 0.17900001 14981537
0.027678646 0.00019198484 0.17900001 16363444
0.028520387 0.00019198484 0.17900001 15639724
0.029362129 0.00019198484 0.17900001 16760780
0.03020387 0.00019198484 0.17900001 16765148
0.03104561 0.00019198484 0.17900001 15443887
0.031887352 0.00019198484 0.17900001 14983849
0.032729089 0.00019198484 0.17900001 14260126
0.03357083 0.00019198484 0.17900001 15444398
0.03441257 0.00019198484 0.17900001 13141645
0.035254315 0.00019198484 0.17900001 13010059
0.036096055 0.00019198484 0.17900001 12681094
0.036937796 0.00019198484 0.17900001 12483715
0.037779536 0.00019198484 0.17900001 12220543
0.038621277 0.00019198484 0.17900001 12285823
0.039463017 0.00019198484 0.17900001 11956340
0.040304758 0.00019198484 0.17900001 11825524
0.041146498 0.00019198484 0.17900001 12615553
0.041753668 0.00019091229 0.178 12945801
0.042590704 0.00019091229 0.178 11501443
0.043427743 0.00019091229 0.178 8544620
-0.016091868 0.0010337256 0.17900001 5001812
-0.015250128 0.0010337256 0.17900001 5396570
-0.014408386 0.0010337256 0.17900001 5261900
-0.013566647 0.0010337256 0.17900001 7821400
-0.012724906 0.0010337256 0.17900001 10186859
-0.011883165 0.0010337256 0.17900001 10777712
-0.011041424 0.0010337256 0.17900001 11236467
-0.010199684 0.0010337256 0.17900001 11697016
-0.0093579432 0.0010337256 0.17900001 11893111
-0.0085162027 0.0010337256 0.17900001 11958391
-0.0076744617 0.0010337256 0.17900001 12089207
-0.0068327212 0.0010337256 0.17900001 12483967
-0.0059909802 0.0010337256 0.17900001 12944005
-0.0051780064 0.0010395006 0.18000001 12680579
-0.0043315631 0.0010395006 0.18000001 13075852
-0.0034851201 0.0010395006 0.18000001 13470608
-0.0026386771 0.0010395006 0.18000001 13406098
-0.0017922339 0.0010395006 0.18000001 13012626
-0.00094579067 0.0010395006 0.18000001 11501443
-9.9347548e-05 0.0010395006 0.18000001 12355209
0.00074709556 0.0010395006 0.18000001 12353410
0.0015935388 0.0010395006 0.18000001 12812678
0.002439982 0.0010395006 0.18000001 13405585
0.003286425 0.0010395006 0.18000001 13077647
0.0041328683 0.0010395006 0.18000001 13341591
0.0049793115 0.0010395006 0.18000001 12289162
0.0058257547 0.0010395006 0.18000001 12025990
0.0066721975 0.0010395006 0.18000001 12289162
0.0075186412 0.0010395006 0.18000001 12617614
0.0083650844 0.0010395006 0.18000001 12747916
0.0092115272 0.0010395006 0.18000001 13010827
0.01005797 0.0010395006 0.18000001 13141643
0.010904414 0.0010395006 0.18000001 12944518
0.011750856 0.0010395006 0.18000001 12878725
0.012597299 0.0010395006 0.18000001 12682116
0.013443743 0.0010395006 0.18000001 12485764
0.014210797 0.0010337256 0.17900001 12089725
0.015136628 0.0010395006 0.18000001 12220543
0.015983073 0.0010395006 0.18000001 12681092
0.016829515 0.0010395006 0.18000001 12681092
0.017675959 0.0010395006 0.18000001 12879241
0.018522402 0.0010395006 0.18000001 13273999
0.019368844 0.0010395006 0.18000001 12945034
0.020215288 0.0010395006 0.18000001 13208206
0.021061732 0.0010395006 0.18000001 12879241
0.021908173 0.0010395006 0.18000001 12945034
0.022754617 0.0010395006 0.18000001 13470862
0.023601061 0.0010395006 0.18000001 13601933
0.024447504 0.0010395006 0.18000001 13666956
0.025293948 0.0010395006 0.18000001 13732749
0.026140392 0.0010395006 0.18000001 13601165
0.026986832 0.0010395006 0.18000001 13600911
0.027833275 0.0010395006 0.18000001 13995669
0.028679719 0.0010395006 0.18000001 13864083
0.029526163 0.0010395006 0.18000001 14323607
0.030372607 0.0010395006 0.18000001 14127509
0.03121905 0.0010395006 0.18000001 13404302
0.032065492 0.0010395006 0.18000001 12680579
0.032911934 0.0010395006 0.18000001 12680579
0.03375838 0.0010395006 0.18000001 11759990
0.034604821 0.0010395006 0.18000001 12023934
0.035451263 0.0010395006 0.18000001 12616584
0.036297709 0.0010395006 0.18000001 12616584
0.037144151 0.0010395006 0.18000001 12813963
0.037779536 0.0010337256 0.17900001 12616584
0.038621277 0.0010337256 0.17900001 12154748
0.039463017 0.0010337256 0.17900001 12220795
0.040304758 0.0010337256 0.17900001 12484737
0.041146498 0.0010337256 0.17900001 13011854
0.041753668 0.0010279506 0.178 11304064
0.042829979 0.0010337256 0.17900001 8347492
0.043427743 0.0010279506 0.178 5129035
-0.015335324 0.0018859437 0.18000001 5725535
-0.014408386 0.0018754662 0.17900001 4869454
-0.013566647 0.0018754662 0.17900001 5391689
-0.012795995 0.0018859437 0.18000001 9464940
-0.011949551 0.0018859437 0.18000001 10318191
-0.011103109 0.0018859437 0.18000001 11303802
-0.010256666 0.0018859437 0.18000001 11763840
-0.0094102221 0.0018859437 0.18000001 11499385
-0.0085637793 0.0018859437 0.18000001 12156031
-0.0077173361 0.0018859437 0.18000001 13208460
-0.0068708933 0.0018859437 0.18000001 12945286
-0.0060244496 0.0018859437 0.18000001 12483967
-0.0051780064 0.0018859437 0.18000001 12417920
-0.0043315631 0.0018859437 0.18000001 12878471
-0.0034851201 0.0018859437 0.18000001 12945034
-0.0026386771 0.0018859437 0.18000001 12813961
-0.0017922339 0.0018859437 0.18000001 12355209
-0.00094579067 0.0018859437 0.18000001 11173250
-9.9347548e-05 0.0018859437 0.18000001 11961221
0.00074709556 0.0018859437 0.18000001 12156545
0.0015935388 0.0018859437 0.18000001 12813961
0.002439982 0.0018859437 0.18000001 12682375
0.003286425 0.0018859437 0.18000001 13340821
0.0041328683 0.0018859437 0.18000001 13143442
0.0049793115 0.0018859437 0.18000001 12551303
0.0058257547 0.0018859437 0.18000001 12288133
0.0066721975 0.0018859437 0.18000001 12485258
0.0075186412 0.0018859437 0.18000001 13208721
0.0083650844 0.0018859437 0.18000001 13208721
0.0092115272 0.0018859437 0.18000001 13537173
0.01005797 0.0018859437 0.18000001 13076622
0.010904414 0.0018859437 0.18000001 12945036
0.011750856 0.0018859437 0.18000001 13011342
0.012597299 0.0018859437 0.18000001 12748430
0.013443743 0.0018859437 0.18000001 10974074
0.014290187 0.0018859437 0.18000001 11828611
0.015136628 0.0018859437 0.18000001 12222086
0.015983073 0.0018859437 0.18000001 12813963
0.016829515 0.0018859437 0.18000001 12748168
0.017675959 0.0018859437 0.18000001 13010827
0.018522402 0.0018859437 0.18000001 13208206
0.019368844 0.0018859437 0.18000001 13076620
0.020215288 0.0018859437 0.18000001 12945547
0.021061732 0.0018859437 0.18000001 12945547
0.021908173 0.0018859437 0.18000001 12879754
0.022754617 0.0018859437 0.18000001 13274253
0.023601061 0.0018859437 0.18000001 13668239
0.024447504 0.0018859437 0.18000001 13536140
0.025293948 0.0018859437 0.18000001 13009544
0.026140392 0.0018859437 0.18000001 12615301
0.026986832 0.0018859437 0.18000001 12549508
0.027833275 0.0018859437 0.18000001 12483715
0.028679719 0.0018859437 0.18000001 12943751
0.029526163 0.0018859437 0.18000001 13206153
0.030372607 0.0018859437 0.18000001 13271946
0.03121905 0.0018859437 0.18000001 12219258
0.032065492 0.0018859437 0.18000001 12679809
0.033094779 0.0018964212 0.18100001 13075337
0.033945926 0.0018964212 0.18100001 12681092
0.034797072 0.0018964212 0.18100001 12352897
0.035451263 0.0018859437 0.18000001 12287617
0.036297709 0.0018859437 0.18000001 12353412
0.037144151 0.0018859437 0.18000001 12682377
0.037990596 0.0018859437 0.18000001 12879756
0.038837038 0.0018859437 0.18000001 12287104
0.03968348 0.0018859437 0.18000001 12418690
0.040304758 0.0018754662 0.17900001 12551303
0.041146498 0.0018754662 0.17900001 11040117
0.041988239 0.0018754662 0.17900001 10649218
-0.015335324 0.0027323868 0.18000001 4936019
-0.014488881 0.0027323868 0.18000001 5462361
-0.013642439 0.0027323868 0.18000001 5000268
-0.012795995 0.0027323868 0.18000001 6639956
-0.012015938 0.0027475669 0.18100001 8806496
-0.011164793 0.0027475669 0.18100001 10055021
-0.010313648 0.0027475669 0.18100001 10383216
-0.0094625009 0.0027475669 0.18100001 10974324
-0.0086113559 0.0027475669 0.18100001 11499385
-0.00776021 0.0027475669 0.18100001 12023932
-0.0069090649 0.0027475669 0.18100001 13010057
-0.006057919 0.0027475669 0.18100001 12944264
-0.0052067731 0.0027475669 0.18100001 13010057
-0.0043556276 0.0027475669 0.18100001 12484483
-0.0035044819 0.0027475669 0.18100001 12484483
-0.0026533364 0.0027475669 0.18100001 12551303
-0.0018021908 0.0027475669 0.18100001 12421518
-0.00095104508 0.0027475669 0.18100001 10713212
-9.989948e-05 0.0027475669 0.18100001 12948629
0.00075124612 0.0027475669 0.18100001 13143440
0.0016023918 0.0027475669 0.18100001 12814215
0.0024535374 0.0027475669 0.18100001 13143180
0.0033046829 0.0027475669 0.18100001 13076874
0.0041558286 0.0027475669 0.18100001 12747657
0.0050069741 0.0027475669 0.18100001 12681864
0.00585812 0.0027475669 0.18100001 12879756
0.0067092655 0.0027475669 0.18100001 12945549
0.0075604115 0.0027475669 0.18100001 13602194
0.0084115565 0.0027475669 0.18100001 13404815
0.0092627024 0.0027475669 0.18100001 13668757
0.010113848 0.0027475669 0.18100001 13668757
0.010964993 0.0027475669 0.18100001 13471893
0.011816138 0.0027475669 0.18100001 12353412
0.012667284 0.0027475669 0.18100001 12420235
0.01351843 0.0027475669 0.18100001 11895176
0.014369576 0.0027475669 0.18100001 12815506
0.015220721 0.0027475669 0.18100001 12683407
0.016071867 0.0027475669 0.18100001 12156547
0.016923014 0.0027475669 0.18100001 12616584
0.017774159 0.0027475669 0.18100001 13011342
0.018625304 0.0027475669 0.18100001 13406098
0.019476449 0.0027475669 0.18100001 13274512
0.020327596 0.0027475669 0.18100001 13143442
0.021178741 0.0027475669 0.18100001 13669786
0.022029886 0.0027475669 0.18100001 12813709
0.022881033 0.0027475669 0.18100001 12550278
0.023732178 0.0027475669 0.18100001 13864853
0.024583325 0.0027475669 0.18100001 13601681
0.02543447 0.0027475669 0.18100001 13667989
0.026285617 0.0027475669 0.18100001 12747657
0.02713676 0.0027475669 0.18100001 12418692
0.027987905 0.0027475669 0.18100001 12287106
0.028839052 0.0027475669 0.18100001 12615301
0.029690197 0.0027475669 0.18100001 12680581
0.030541344 0.0027475669 0.18100001 12285823
0.031392489 0.0027475669 0.18100001 12220028
0.032243636 0.0027475669 0.18100001 12483200
0.033277623 0.0027627468 0.18200001 12746372
0.034133472 0.0027627468 0.18200001 12615299
0.03498932 0.0027627468 0.18200001 12353410
0.035648216 0.0027475669 0.18100001 12156033
0.036499362 0.0027475669 0.18100001 12221826
0.037350509 0.0027475669 0.18100001 12682123
0.038201656 0.0027475669 0.18100001 12287619
0.039052799 0.0027475669 0.18100001 12616584
0.039903942 0.0027475669 0.18100001 12353410
0.040304758 0.002717207 0.17900001 12157315
-0.015420521 0.0035987124 0.18100001 4936019
-0.014488881 0.00357883 0.18000001 5791839
-0.01371823 0.0035987124 0.18100001 4475468
-0.012867084 0.0035987124 0.18100001 5721421
-0.012015938 0.0035987124 0.18100001 8281949
-0.011226477 0.003618595 0.18200001 9331811
-0.010370629 0.003618595 0.18200001 10580595
-0.0095147807 0.003618595 0.18200001 11303804
-0.0086589325 0.003618595 0.18200001 11630971
-0.0078030843 0.003618595 0.18200001 13076620
-0.0069472366 0.003618595 0.18200001 13339792
-0.0060913879 0.003618595 0.18200001 13471378
-0.0052355397 0.003618595 0.18200001 13668757
-0.0043796916 0.003618595 0.18200001 13537171
-0.0035238436 0.003618595 0.18200001 13734550
-0.0026679956 0.003618595 0.18200001 13603993
-0.0018121476 0.003618595 0.18200001 12619410
-0.00095629948 0.003618595 0.18200001 10449527
-0.00010045141 0.003618595 0.18200001 12422031
0.00075539667 0.003618595 0.18200001 12617096
0.0016112449 0.003618595 0.18200001 12616582
0.0024670931 0.003618595 0.18200001 12681862
0.003322941 0.003618595 0.18200001 12352897
0.004178789 0.003618595 0.18200001 12287106
0.0050346372 0.003618595 0.18200001 13009805
0.0058904854 0.003618595 0.18200001 13668759
0.0067463336 0.003618595 0.18200001 13799575
0.0076021818 0.003618595 0.18200001 13733267
0.0084580295 0.003618595 0.18200001 13667987
0.0093138777 0.003618595 0.18200001 13668757
0.010169726 0.003618595 0.18200001 13668757
0.011025574 0.003618595 0.18200001 12878989
0.011881421 0.003618595 0.18200001 11892607
0.01273727 0.003618595 0.18200001 11564928
0.013593119 0.003618595 0.18200001 12947864
0.014448967 0.003618595 0.18200001 12947092
0.015304814 0.003618595 0.18200001 13471893
0.016160663 0.003618595 0.18200001 13011342
0.017016511 0.003618595 0.18200001 11958654
0.01787236 0.003618595 0.18200001 12353158
0.018728206 0.003618595 0.18200001 13471893
0.019584054 0.003618595 0.18200001 13142674
0.020439902 0.003618595 0.18200001 13142674
0.021295752 0.003618595 0.18200001 12880016
0.022151599 0.003618595 0.18200001 13011602
0.023007447 0.003618595 0.18200001 12682123
0.023863295 0.003618595 0.18200001 12944266
0.024719143 0.003618595 0.18200001 13667474
0.025574993 0.003618595 0.18200001 13930646
0.026430842 0.003618595 0.18200001 13076622
0.027286686 0.003618595 0.18200001 12748170
0.028142536 0.003618595 0.18200001 12879756
0.028998384 0.003618595 0.18200001 12813450
0.029854232 0.003618595 0.18200001 12614788
0.030710081 0.003618595 0.18200001 12088444
0.031565931 0.003618595 0.18200001 12023164
0.032421779 0.003618595 0.18200001 12287106
0.033460468 0.0036384773 0.18300001 13075850
0.034321018 0.0036384773 0.18300001 12813961
0.035181571 0.0036384773 0.18300001 12024961
0.035845168 0.003618595 0.18200001 11170422
0.036701016 0.003618595 0.18200001 11630973
0.037556864 0.003618595 0.18200001 11565180
0.038412713 0.003618595 0.18200001 12223110
0.039052799 0.0035987124 0.18100001 12420489
0.039903942 0.0035987124 0.18100001 12158600
0.040529922 0.00357883 0.18000001 11173761
-0.015420521 0.0044498583 0.18100001 4936019
-0.014569375 0.0044498583 0.18100001 4409675
-0.01371823 0.0044498583 0.18100001 7107188
-0.012867084 0.0044498583 0.18100001 5066061
-0.012082324 0.0044744429 0.18200001 6837333
-0.01128816 0.004499028 0.18300001 9003362
-0.010427611 0.004499028 0.18300001 10777720
-0.0095670596 0.004499028 0.18300001 11369597
-0.0087065091 0.004499028 0.18300001 11170933
-0.0078459587 0.004499028 0.18300001 11499385
-0.0069854083 0.004499028 0.18300001 12551303
-0.0061248573 0.004499028 0.18300001 12682375
-0.0052643064 0.004499028 0.18300001 13339792
-0.004403756 0.004499028 0.18300001 13734550
-0.0035432056 0.004499028 0.18300001 13799573
-0.0026826551 0.004499028 0.18300001 13274512
-0.0018221044 0.004499028 0.18300001 12486028
-0.00096155389 0.004499028 0.18300001 11565439
-0.00010100334 0.004499028 0.18300001 11696512
0.00075954717 0.004499028 0.18300001 11761789
0.0016200979 0.004499028 0.18300001 11958654
0.0024806485 0.004499028 0.18300001 12352897
0.0033411989 0.004499028 0.18300001 12550276
0.0042017493 0.004499028 0.18300001 12681864
0.0050623002 0.004499028 0.18300001 12812680
0.0059228512 0.004499028 0.18300001 13339794
0.0067834011 0.004499028 0.18300001 13602196
0.007643952 0.004499028 0.18300001 13996439
0.0085045025 0.004499028 0.18300001 14128025
0.0093650529 0.004499028 0.18300001 13404563
0.010225603 0.004499028 0.18300001 12878991
0.011086154 0.004499028 0.18300001 12484746
0.011946704 0.004499028 0.18300001 11563644
0.012807255 0.004499028 0.18300001 11564158
0.013667806 0.004499028 0.18300001 11566213
0.014528356 0.004499028 0.18300001 12882073
0.015388906 0.004499028 0.18300001 13735325
0.016249457 0.004499028 0.18300001 12616330
0.017110009 0.004499028 0.18300001 12024193
0.017970558 0.004499028 0.18300001 12484746
0.01883111 0.004499028 0.18300001 12484744
0.019691659 0.004499028 0.18300001 12616330
0.020552211 0.004499028 0.18300001 12090500
0.021412762 0.004499028 0.18300001 12287879
0.022273311 0.004499028 0.18300001 12353672
0.023133863 0.004499028 0.18300001 12551051
0.023994412 0.004499028 0.18300001 12550278
0.024854964 0.004499028 0.18300001 13536403
0.025715515 0.004499028 0.18300001 12877958
0.026576066 0.004499028 0.18300001 13141130
0.027436614 0.004499028 0.18300001 13076620
0.028297165 0.004499028 0.18300001 13010827
0.029157715 0.004499028 0.18300001 13076622
0.030018266 0.004499028 0.18300001 12549508
0.030878818 0.004499028 0.18300001 12417922
0.031739369 0.004499028 0.18300001 11826555
0.032599919 0.004499028 0.18300001 11827068
0.033643313 0.004523613 0.18400002 11761021
0.034508567 0.004523613 0.18400002 12748430
0.035373818 0.004523613 0.18400002 12486028
0.03604212 0.004499028 0.18300001 11039095
0.03690267 0.004499028 0.18300001 11433853
0.037763223 0.004499028 0.18300001 12157576
0.038623773 0.004499028 0.18300001 12553104
0.039268561 0.0044744429 0.18200001 10119790
0.039903942 0.0044498583 0.18100001 9989487
-0.013794022 0.0053302911 0.18200001 4936019
-0.012938173 0.0053302911 0.18200001 5593177
-0.012148711 0.0053595784 0.18300001 7037794
-0.01128816 0.0053595784 0.18300001 7886680
-0.010427611 0.0053595784 0.18300001 10120560
-0.0096193384 0.0053888657 0.18400002 10974837
-0.0087540857 0.0053888657 0.18400002 11896193
-0.0078888331 0.0053888657 0.18400002 11434359
-0.0070235799 0.0053888657 0.18400002 11893373
-0.0061583263 0.0053888657 0.18400002 12221313
-0.0052930736 0.0053888657 0.18400002 13075850
-0.0044278204 0.0053888657 0.18400002 13010827
-0.0035625673 0.0053888657 0.18400002 13011342
-0.0026973144 0.0053888657 0.18400002 13208721
-0.0018320613 0.0053888657 0.18400002 13010829
-0.00096680829 0.0053888657 0.18400002 12418692
-0.00010155528 0.0053888657 0.18400002 12023934
0.00076369772 0.0053888657 0.18400002 12089473
0.0016289508 0.0053888657 0.18400002 12023934
0.0024942039 0.0053888657 0.18400002 12088955
0.0033594568 0.0053888657 0.18400002 13404815
0.0042247097 0.0053888657 0.18400002 13799573
0.0050899629 0.0053888657 0.18400002 13865107
0.0059552165 0.0053888657 0.18400002 14325658
0.0068204692 0.0053888657 0.18400002 13404556
0.0076857223 0.0053888657 0.18400002 13206923
0.0085509755 0.0053888657 0.18400002 13535888
0.0094162282 0.0053888657 0.18400002 13339024
0.010281481 0.0053888657 0.18400002 12879243
0.011146734 0.0053888657 0.18400002 12418438
0.012011987 0.0053888657 0.18400002 11957889
0.01287724 0.0053888657 0.18400002 12155781
0.013742493 0.0053888657 0.18400002 11302787
0.014607747 0.0053888657 0.18400002 12750746
0.015472999 0.0053888657 0.18400002 13341852
0.016338252 0.0053888657 0.18400002 12813709
0.017203506 0.0053888657 0.18400002 12221061
0.018068759 0.0053888657 0.18400002 12024193
0.018934011 0.0053888657 0.18400002 12353158
0.019799264 0.0053888657 0.18400002 12221572
0.020664519 0.0053888657 0.18400002 11827328
0.021529771 0.0053888657 0.18400002 12025477
0.022395024 0.0053888657 0.18400002 11696512
0.023260277 0.0053888657 0.18400002 12025477
0.024125529 0.0053888657 0.18400002 12748430
0.024990784 0.0053888657 0.18400002 12879756
0.025856037 0.0053888657 0.18400002 13273999
0.026721291 0.0053888657 0.18400002 13405585
0.02758654 0.0053888657 0.18400002 13537171
0.028451795 0.0053888657 0.18400002 13274001
0.029317047 0.0053888657 0.18400002 12879243
0.030182302 0.0053888657 0.18400002 13010575
0.031047555 0.0053888657 0.18400002 12023934
0.031912807 0.0053888657 0.18400002 11958654
0.032778062 0.0053888657 0.18400002 11695996
0.033826154 0.005418153 0.185 12288133
0.03469611 0.005418153 0.185 12222856
0.035566065 0.005418153 0.185 12222856
0.036239073 0.0053888657 0.18400002 12157063
0.037104327 0.0053888657 0.18400002 11170681
0.037969578 0.0053888657 0.18400002 11237244
0.038623773 0.0053595784 0.18300001 10448241
0.039268561 0.0053302911 0.18200001 9922665
-0.015420521 0.0061521493 0.18100001 4803663
-0.013869813 0.0062201289 0.18300001 4803663
-0.013009262 0.0062201289 0.18300001 4803663
-0.012215097 0.0062541184 0.18400002 5459792
-0.011349845 0.0062541184 0.18400002 6902099
-0.010484592 0.0062541184 0.18400002 8214361
-0.0096716173 0.006288108 0.185 11172732
-0.0088016624 0.006288108 0.185 10843765
-0.0079317065 0.006288108 0.185 11040117
-0.0070617511 0.006288108 0.185 12156031
-0.0061917952 0.006288108 0.185 12484483
-0.0053218398 0.006288108 0.185 12221311
-0.0044518844 0.006288108 0.185 12879241
-0.0035819288 0.006288108 0.185 12945034
-0.0027119736 0.006288108 0.185 12879241
-0.0018420181 0.006288108 0.185 12813450
-0.00097206264 0.006288108 0.185 12681862
-0.0001021072 0.006288108 0.185 12484483
0.00076784822 0.006288108 0.185 12352897
0.0016378037 0.006288108 0.185 13075339
0.0025077593 0.006288108 0.185 13930646
0.0033777144 0.006288108 0.185 14193818
0.0042476701 0.006288108 0.185 14062232
0.0051176255 0.006288108 0.185 14128538
0.0059875813 0.006288108 0.185 14128792
0.0068575363 0.006288108 0.185 13799827
0.0077274921 0.006288108 0.185 13864337
0.0085974475 0.006288108 0.185 13403016
0.0094674025 0.006288108 0.185 13404304
0.010337358 0.006288108 0.185 13075598
0.011207313 0.006288108 0.185 12812426
0.012077268 0.006288108 0.185 12549254
0.012947224 0.006288108 0.185 12221059
0.01381718 0.006288108 0.185 11959947
0.014687136 0.006288108 0.185 13080225
0.01555709 0.006288108 0.185 12815506
0.016427046 0.006288108 0.185 13010577
0.017297002 0.006288108 0.185 12352645
0.018166957 0.006288108 0.185 12417668
0.019036911 0.006288108 0.185 11957887
0.019906867 0.006288108 0.185 12352129
0.020776823 0.006288108 0.185 12221826
0.021646779 0.006288108 0.185 12024707
0.022516733 0.006288108 0.185 11959684
0.023386689 0.006288108 0.185 12486028
0.024256645 0.006288108 0.185 12617614
0.025126601 0.006288108 0.185 12288133
0.025996557 0.006288108 0.185 13274514
0.026866512 0.006288108 0.185 13274514
0.027736466 0.006288108 0.185 13471380
0.028606422 0.006288108 0.185 13734552
0.029476378 0.006288108 0.185 13010829
0.030346334 0.006288108 0.185 11103091
0.03121629 0.006288108 0.185 11892861
0.032086246 0.006288108 0.185 12223110
0.032956202 0.006288108 0.185 12157830
0.034008998 0.006322098 0.186 11499900
0.034883656 0.006322098 0.186 11499900
0.035758317 0.006322098 0.186 11565180
0.036436021 0.006288108 0.185 11894145
0.037305977 0.006288108 0.185 11565693
0.037969578 0.0062541184 0.18400002 11105658
0.038623773 0.0062201289 0.18300001 10580595
-0.015420521 0.0070032952 0.18100001 4672847
-0.013080351 0.007119372 0.18400002 4803663
-0.012281483 0.0071580638 0.185 4869456
-0.011473212 0.0071967561 0.186 6114382
-0.010541573 0.0071580638 0.185 7689562
-0.0097238962 0.0071967561 0.186 8542813
-0.008849239 0.0071967561 0.186 10581365
-0.0079745799 0.0071967561 0.186 10580079
-0.0070999227 0.0071967561 0.186 11828863
-0.0062252646 0.0071967561 0.186 12288131
-0.0053506065 0.0071967561 0.186 12551303
-0.0044759484 0.0071967561 0.186 12484996
-0.0036012908 0.0071967561 0.186 12352897
-0.0027266329 0.0071967561 0.186 12681862
-0.001851975 0.0071967561 0.186 12681862
-0.00097731699 0.0071967561 0.186 13207436
-0.00010265913 0.0071967561 0.186 13864853
0.00077199872 0.0071967561 0.186 12549508
0.0016466568 0.0071967561 0.186 13141130
0.0025213147 0.0071967561 0.186 13733267
0.0033959725 0.0071967561 0.186 14062232
0.0042706304 0.0071967561 0.186 13996952
0.0051452885 0.0071967561 0.186 14062747
0.0060199467 0.0071967561 0.186 13865368
0.0068946043 0.0071967561 0.186 13010059
0.0077692624 0.0071967561 0.186 13470095
0.0086439196 0.0071967561 0.186 13075337
0.0095185777 0.0071967561 0.186 13075852
0.010393236 0.0071967561 0.186 13207438
0.011267894 0.0071967561 0.186 13536403
0.012142551 0.0071967561 0.186 13404817
0.013017209 0.0071967561 0.186 12680581
0.013891867 0.0071967561 0.186 12287879
0.014766525 0.0071967561 0.186 12817053
0.015641183 0.0071967561 0.186 11500420
0.016515842 0.0071967561 0.186 12682123
0.017390499 0.0071967561 0.186 12813709
0.018265158 0.0071967561 0.186 13207954
0.019139815 0.0071967561 0.186 12221059
0.020014472 0.0071967561 0.186 12549508
0.020889131 0.0071967561 0.186 13339024
0.021763789 0.0071967561 0.186 13866651
0.022638446 0.0071967561 0.186 13340307
0.023513105 0.0071967561 0.186 12814477
0.024387762 0.0071967561 0.186 12748430
0.025262421 0.0071967561 0.186 12024707
0.02613708 0.0071967561 0.186 12682123
0.027011737 0.0071967561 0.186 13208721
0.027886393 0.0071967561 0.186 13471891
0.028761052 0.0071967561 0.186 13340305
0.029635709 0.0071967561 0.186 13142926
0.030510368 0.0071967561 0.186 13011340
0.031385027 0.0071967561 0.186 12682375
0.032259684 0.0071967561 0.186 11959936
0.033134341 0.0071967561 0.186 11499900
0.034191843 0.0072354483 0.18700001 11894658
0.035071205 0.0072354483 0.18700001 12026244
0.035950564 0.0072354483 0.18700001 12157317
0.036632974 0.0071967561 0.186 11762557
0.037507631 0.0071967561 0.186 11170933
0.038175933 0.0071580638 0.185 10777460
0.038834833 0.007119372 0.18400002 10318193
-0.015420521 0.0078544402 0.18100001 4672847
-0.013151439 0.0080280192 0.185 4738638
-0.012414256 0.0081148082 0.18700001 4738638
-0.011534896 0.0081148082 0.18700001 5590095
-0.010655536 0.0081148082 0.18700001 6900048
-0.0098284548 0.0081582032 0.18800001 8477535
-0.0089443922 0.0081582032 0.18800001 9725804
-0.0080603287 0.0081582032 0.18800001 10580595
-0.0071380944 0.0081148082 0.18700001 10777460
-0.0062587336 0.0081148082 0.18700001 11565180
-0.0053793732 0.0081148082 0.18700001 12223110
-0.0045000128 0.0081148082 0.18700001 12354696
-0.0036206525 0.0081148082 0.18700001 12551305
-0.0027412924 0.0081148082 0.18700001 13997724
-0.0018619319 0.0081148082 0.18700001 13339794
-0.00098257139 0.0081148082 0.18700001 13667987
-0.00010321107 0.0081148082 0.18700001 12811649
0.00077614927 0.0081148082 0.18700001 12877188
0.0016555098 0.0081148082 0.18700001 13600911
0.0025348703 0.0081148082 0.18700001 13272716
0.0034142304 0.0081148082 0.18700001 14193818
0.0042935908 0.0081148082 0.18700001 14062747
0.0051729511 0.0081148082 0.18700001 13799321
0.006052312 0.0081148082 0.18700001 12812426
0.0069316719 0.0081148082 0.18700001 13470356
0.0078110327 0.0081148082 0.18700001 12944782
0.0086903926 0.0081148082 0.18700001 12681610
0.009569753 0.0081148082 0.18700001 12352645
0.010449113 0.0081148082 0.18700001 12352899
0.011328474 0.0081148082 0.18700001 13206925
0.012207834 0.0081148082 0.18700001 13995671
0.013087194 0.0081148082 0.18700001 13337741
0.013966555 0.0081148082 0.18700001 12945295
0.014845916 0.0081148082 0.18700001 13146788
0.015725276 0.0081148082 0.18700001 11237248
0.016604636 0.0081148082 0.18700001 12287367
0.017483996 0.0081148082 0.18700001 13011090
0.018363358 0.0081148082 0.18700001 13669018
0.019242717 0.0081148082 0.18700001 13603479
0.020122077 0.0081148082 0.18700001 13405585
0.021001438 0.0081148082 0.18700001 13866136
0.0218808 0.0081148082 0.18700001 13800343
0.022760158 0.0081148082 0.18700001 13208719
0.023639519 0.0081148082 0.18700001 12484998
0.024518881 0.0081148082 0.18700001 12813963
0.025398241 0.0081148082 0.18700001 12287365
0.026277602 0.0081148082 0.18700001 12287365
0.027156962 0.0081148082 0.18700001 12879502
0.028036321 0.0081148082 0.18700001 12813963
0.028915681 0.0081148082 0.18700001 12353410
0.029795041 0.0081148082 0.18700001 12353410
0.030674402 0.0081148082 0.18700001 12352897
0.031553764 0.0081148082 0.18700001 13208719
0.032433122 0.0081148082 0.18700001 12552073
0.033312485 0.0081148082 0.18700001 12355209
0.034374688 0.0081582032 0.18800001 12486795
0.035258751 0.0081582032 0.18800001 12092037
0.036142815 0.0081582032 0.18800001 11828863
0.036829926 0.0081148082 0.18700001 10908531
0.037709285 0.0081148082 0.18700001 10316394
0.038588647 0.0081148082 0.18700001 9922665
-0.015420521 0.0087055862 0.18100001 4475468
-0.012547029 0.009090364 0.18900001 4607054
-0.011658264 0.009090364 0.18900001 5130827
-0.010769499 0.009090364 0.18900001 6639956
-0.0098807337 0.009090364 0.18900001 7623510
-0.0090395454 0.0091384612 0.19000001 9199975
-0.0081460774 0.0091384612 0.19000001 10646906
-0.0072144377 0.009090364 0.18900001 11040892
-0.0063256719 0.009090364 0.18900001 11566463
-0.0054081399 0.0090422668 0.18800001 11698049
-0.0045240773 0.0090422668 0.18800001 11499900
-0.0036400142 0.0090422668 0.18800001 11565439
-0.0027559516 0.0090422668 0.18800001 12880270
-0.0018718888 0.0090422668 0.18800001 13208719
-0.0009878258 0.0090422668 0.18800001 13010827
-0.000103763 0.0090422668 0.18800001 13273999
0.00078029983 0.0090422668 0.18800001 13865366
0.0016643627 0.0090422668 0.18800001 14194072
0.0025484257 0.0090422668 0.18800001 13996439
0.0034324883 0.0090422668 0.18800001 13470095
0.0043165511 0.0090422668 0.18800001 13141130
0.0052006142 0.0090422668 0.18800001 13141645
0.0060846773 0.0090422668 0.18800001 13010059
0.0069687399 0.0090422668 0.18800001 12747403
0.007852803 0.0090422668 0.18800001 12286852
0.0087368656 0.0090422668 0.18800001 12221059
0.0096209282 0.0090422668 0.18800001 12483461
0.010504992 0.0090422668 0.18800001 12680840
0.011389053 0.0090422668 0.18800001 12746120
0.012273116 0.0090422668 0.18800001 12679557
0.01315718 0.0090422668 0.18800001 13733015
0.014041243 0.0090422668 0.18800001 13536921
0.014925306 0.0090422668 0.18800001 12816280
0.015809368 0.0090422668 0.18800001 12027791
0.016693432 0.0090422668 0.18800001 12222858
0.017577494 0.0090422668 0.18800001 12814225
0.018461557 0.0090422668 0.18800001 13274774
0.019345619 0.0090422668 0.18800001 12880270
0.020229682 0.0090422668 0.18800001 13668759
0.021113746 0.0090422668 0.18800001 13471378
0.021997809 0.0090422668 0.18800001 12878471
0.022881871 0.0090422668 0.18800001 12681094
0.023765935 0.0090422668 0.18800001 12681094
0.024649998 0.0090422668 0.18800001 12550278
0.02553406 0.0090422668 0.18800001 12813450
0.026418123 0.0090422668 0.18800001 12879756
0.027302187 0.0090422668 0.18800001 12880270
0.028186247 0.0090422668 0.18800001 12748684
0.02907031 0.0090422668 0.18800001 12748684
0.029954374 0.0090422668 0.18800001 13275026
0.030838437 0.0090422668 0.18800001 12748168
0.031722501 0.0090422668 0.18800001 12682889
0.032780003 0.009090364 0.18900001 12552073
0.033668768 0.009090364 0.18900001 11697279
0.034557533 0.009090364 0.18900001 11236728
0.035446297 0.009090364 0.18900001 11040119
0.036335062 0.009090364 0.18900001 10974326
0.037223827 0.009090364 0.18900001 10382189
0.038112596 0.009090364 0.18900001 10316909
0.038588647 0.0089941695 0.18700001 10055021
-0.012679802 0.010084728 0.19100001 4475466
-0.011781632 0.010084728 0.19100001 4934220
-0.010883463 0.010084728 0.19100001 6509400
-0.0099852914 0.010084728 0.19100001 7164242
-0.0091346977 0.010137527 0.192 8148570
-0.0082318243 0.010137527 0.192 9528425
-0.007290781 0.010084728 0.19100001 10252148
-0.0063926107 0.010084728 0.19100001 10646904
-0.0054369066 0.0099791288 0.18900001 10777720
-0.0045481413 0.0099791288 0.18900001 10711413
-0.0036593762 0.0099791288 0.18900001 11039865
-0.0027706109 0.0099791288 0.18900001 11433340
-0.0018818455 0.0099791288 0.18900001 12617868
-0.0009930802 0.0099791288 0.18900001 13011340
-0.00010431492 0.0099791288 0.18900001 12813448
0.00078445039 0.0099791288 0.18900001 12943751
0.0016732158 0.0099791288 0.18900001 14193818
0.0025619811 0.0099791288 0.18900001 13667474
0.0034507464 0.0099791288 0.18900001 13206923
0.0043395115 0.0099791288 0.18900001 13075850
0.0052282768 0.0099791288 0.18900001 13010057
0.0061170426 0.0099791288 0.18900001 12681610
0.0070058075 0.0099791288 0.18900001 11957889
0.0078945737 0.0099791288 0.18900001 12286854
0.0087833386 0.0099791288 0.18900001 12352647
0.0096721034 0.0099791288 0.18900001 13471380
0.010560869 0.0099791288 0.18900001 13470095
0.011449634 0.0099791288 0.18900001 13206925
0.012338399 0.0099791288 0.18900001 12746374
0.013227165 0.0099791288 0.18900001 12943499
0.014115931 0.0099791288 0.18900001 13404050
0.015004696 0.0099791288 0.18900001 12420498
0.015893461 0.0099791288 0.18900001 12750746
0.016782226 0.0099791288 0.18900001 13209751
0.017670993 0.0099791288 0.18900001 12682637
0.018559758 0.0099791288 0.18900001 11630203
0.019448522 0.0099791288 0.18900001 13603993
0.020337287 0.0099791288 0.18900001 13735065
0.021226054 0.0099791288 0.18900001 13208208
0.022114819 0.0099791288 0.18900001 13208208
0.023003584 0.0099791288 0.18900001 13470608
0.023892349 0.0099791288 0.18900001 13339792
0.024781115 0.0099791288 0.18900001 13011340
0.02566988 0.0099791288 0.18900001 12682375
0.026558645 0.0099791288 0.18900001 12616584
0.027447412 0.0099791288 0.18900001 12353926
0.028336175 0.0099791288 0.18900001 12486028
0.02922494 0.0099791288 0.18900001 13144471
0.030113706 0.0099791288 0.18900001 12946833
0.031002471 0.0099791288 0.18900001 12617098
0.032059975 0.010031928 0.19000001 11564410
0.032953441 0.010031928 0.19000001 11828865
0.033846911 0.010031928 0.19000001 11631232
0.034740377 0.010031928 0.19000001 11369084
0.035633843 0.010031928 0.19000001 11237498
0.036527313 0.010031928 0.19000001 10514288
0.037420779 0.010031928 0.19000001 10251630
0.038314249 0.010031928 0.19000001 10252146
0.039001361 0.0099791288 0.18900001 10450038
-0.012945347 0.011212907 0.19500001 4803661
-0.012028367 0.011212907 0.19500001 4934477
-0.011225351 0.011327911 0.19700001 5458509
-0.010089849 0.011097902 0.193 7231318
-0.0092774276 0.011212907 0.19500001 8280668
-0.008317573 0.011155404 0.19400001 9134948
-0.0073671238 0.011097902 0.193 10121843
-0.0064595486 0.011097902 0.193 10120560
-0.0054944404 0.010982899 0.19100001 10777720
-0.0045962702 0.010982899 0.19100001 10909306
-0.0036787379 0.010925396 0.19000001 11303550
-0.0027852703 0.010925396 0.19000001 11368314
-0.0018918024 0.010925396 0.19000001 12683659
-0.00099833461 0.010925396 0.19000001 13209233
-0.00010486686 0.010925396 0.19000001 12352899
0.00078860088 0.010925396 0.19000001 12944264
0.0016820688 0.010925396 0.19000001 13404815
0.0025755367 0.010925396 0.19000001 13404302
0.0034690043 0.010925396 0.19000001 12944264
0.0043624719 0.010925396 0.19000001 12550276
0.0052559399 0.010925396 0.19000001 12681864
0.0061494079 0.010925396 0.19000001 12484231
0.0070428755 0.010925396 0.19000001 11431543
0.0079363436 0.010925396 0.19000001 11892096
0.0088298116 0.010925396 0.19000001 13471126
0.0097232787 0.010925396 0.19000001 13273747
0.010616747 0.010925396 0.19000001 13404815
0.011510214 0.010925396 0.19000001 13074569
0.012403682 0.010925396 0.19000001 12746374
0.01329715 0.010925396 0.19000001 12812680
0.014190618 0.010925396 0.19000001 13141645
0.015084086 0.010925396 0.19000001 12289164
0.015977552 0.010925396 0.19000001 12290449
0.016871022 0.010925396 0.19000001 12617616
0.01776449 0.010925396 0.19000001 13077395
0.018657958 0.010925396 0.19000001 12222340
0.019551424 0.010925396 0.19000001 13209235
0.020444892 0.010925396 0.19000001 13143442
0.02133836 0.010925396 0.19000001 13209235
0.022231828 0.010925396 0.19000001 13143188
0.023125295 0.010925396 0.19000001 12945549
0.024018764 0.010925396 0.19000001 13734811
0.024912233 0.010925396 0.19000001 11958400
0.025805701 0.010925396 0.19000001 12353158
0.026699169 0.010925396 0.19000001 12024707
0.027592637 0.010925396 0.19000001 11499133
0.028486101 0.010925396 0.19000001 10973302
0.029379569 0.010925396 0.19000001 11236474
0.030273039 0.010925396 0.19000001 12552334
0.031330541 0.010982899 0.19100001 12420235
0.032228712 0.010982899 0.19100001 11762305
0.033126883 0.010982899 0.19100001 11565439
0.034025054 0.010982899 0.19100001 11237244
0.035106063 0.0110404 0.192 10974585
0.035821389 0.010982899 0.19100001 11369343
0.036719561 0.010982899 0.19100001 11040892
0.037617732 0.010982899 0.19100001 9791597
0.038314249 0.010925396 0.19000001 9529706
-0.013277279 0.012440909 0.2 4146501
-0.012151736 0.012254296 0.19700001 4211524
-0.011396295 0.012440909 0.2 4932937
-0.010194408 0.012129886 0.19500001 7099478
-0.0094201574 0.012316501 0.19800001 8216156
-0.0084461952 0.012254296 0.19700001 8544608
-0.0074816393 0.012192091 0.19600001 9859184
-0.0065264869 0.012129886 0.19500001 9661292
-0.0055519734 0.012005477 0.193 10777722
-0.0046443981 0.012005477 0.193 10843513
-0.0037174614 0.011943272 0.192 11172478
-0.0027999296 0.011881068 0.19100001 12224652
-0.0019017593 0.011881068 0.19100001 12290186
-0.001003589 0.011881068 0.19100001 12684174
-0.00010541879 0.011881068 0.19100001 13473177
0.00079275144 0.011881068 0.19100001 12682377
0.0016909218 0.011881068 0.19100001 12484998
0.0025890921 0.011881068 0.19100001 12748170
0.0034872622 0.011881068 0.19100001 13208721
0.0043854327 0.011881068 0.19100001 13011342
0.005283603 0.011881068 0.19100001 13142928
0.0061817733 0.011881068 0.19100001 13011342
0.0070799435 0.011881068 0.19100001 12748170
