# .PCD v0.7 - Point Cloud Data file format
VERSION 0.7
FIELDS x y z rgb
SIZE 4 4 4 4
TYPE F F F U
COUNT 1 1 1 1
WIDTH 1097
HEIGHT 1
VIEWPOINT 0 0 0 1 0 0 0
POINTS 1097
DATA ascii
0.020875311 0.0065940162 0.19400001 16768231
0.021787588 0.0065940162 0.19400001 16169154
0.022699866 0.0065940162 0.19400001 11759992
0.023490431 0.0065600262 0.193 11496820
0.024398006 0.0065600262 0.193 11694197
0.025305582 0.0065600262 0.193 13139590
0.026213158 0.0065600262 0.193 12417407
0.027120734 0.0065600262 0.193 13342102
0.028028307 0.0065600262 0.193 13214627
0.028935881 0.0065600262 0.193 8608606
0.029998086 0.0065940162 0.19400001 4987936
0.030910363 0.0065940162 0.19400001 5578276
0.03182264 0.0065940162 0.19400001 5448479
0.032734919 0.0065940162 0.19400001 5185307
0.033647198 0.0065940162 0.19400001 4659477
0.034559477 0.0065940162 0.19400001 4265489
0.035471752 0.0065940162 0.19400001 5251098
0.036384027 0.0065940162 0.19400001 5905950
0.037296306 0.0065940162 0.19400001 9589591
0.038208585 0.0065940162 0.19400001 13667728
0.039120864 0.0065940162 0.19400001 13600136
0.040033139 0.0065940162 0.19400001 13599618
0.040734358 0.0065600262 0.193 12941427
0.041641936 0.0065600262 0.193 12874864
0.04254951 0.0065600262 0.193 12546415
0.043457083 0.0065600262 0.193 13204610
0.044364657 0.0065600262 0.193 14717336
0.045272235 0.0065600262 0.193 16033196
0.046179809 0.0065600262 0.193 16756919
0.047087386 0.0065600262 0.193 16626873
0.047746282 0.0065260362 0.192 13014684
-0.0155353 0.0074676014 0.193 4869456
-0.014627726 0.0074676014 0.193 5785930
-0.01372015 0.0074676014 0.193 13540766
-0.012812574 0.0074676014 0.193 14391197
-0.011905 0.0074676014 0.193 13336712
-0.010997425 0.0074676014 0.193 13927818
-0.010142128 0.0075062942 0.19400001 14452617
-0.009229851 0.0075062942 0.19400001 14583433
-0.008317573 0.0075062942 0.19400001 15175570
-0.007405296 0.0075062942 0.19400001 14452367
-0.006493018 0.0075062942 0.19400001 12282743
-0.00558074 0.0075062942 0.19400001 15705008
-0.0046684626 0.0075062942 0.19400001 16767973
-0.0037561848 0.0075062942 0.19400001 16769003
-0.0028439073 0.0075062942 0.19400001 11891324
-0.0019316298 0.0075062942 0.19400001 13536142
-0.0010193522 0.0075062942 0.19400001 13075850
-0.00010707458 0.0075062942 0.19400001 14392228
0.00080520299 0.0075062942 0.19400001 12352129
0.0017174807 0.0075062942 0.19400001 13601935
0.0026297583 0.0075062942 0.19400001 16763855
0.0035420358 0.0075062942 0.19400001 16765138
0.0044543133 0.0075062942 0.19400001 16765140
0.0053665913 0.0075062942 0.19400001 12748684
0.0062788692 0.0075062942 0.19400001 13407130
0.0071911463 0.0075062942 0.19400001 13407130
0.0081034247 0.0075062942 0.19400001 14128538
0.0090157017 0.0075062942 0.19400001 14588576
0.0099279787 0.0075062942 0.19400001 13864083
0.010840257 0.0075062942 0.19400001 13864085
0.011752534 0.0075062942 0.19400001 16764633
0.012664812 0.0075062942 0.19400001 16766171
0.01357709 0.0075062942 0.19400001 16768743
0.014489368 0.0075062942 0.19400001 13404563
0.015401646 0.0075062942 0.19400001 13864855
0.016313922 0.0075062942 0.19400001 14258843
0.017226201 0.0075062942 0.19400001 14784669
0.018138478 0.0075062942 0.19400001 14784669
0.019050756 0.0075062942 0.19400001 13405333
0.019963032 0.0075062942 0.19400001 16766434
0.020875311 0.0075062942 0.19400001 16765664
0.021787588 0.0075062942 0.19400001 13535636
0.022699866 0.0075062942 0.19400001 15179943
0.023490431 0.0074676014 0.193 14587806
0.024398006 0.0074676014 0.193 14981537
0.025436699 0.0075062942 0.19400001 16100020
0.026213158 0.0074676014 0.193 16431295
0.027120734 0.0074676014 0.193 16108490
0.028028307 0.0074676014 0.193 16775667
0.028935881 0.0074676014 0.193 16775925
0.029998086 0.0075062942 0.19400001 15252414
0.030910363 0.0075062942 0.19400001 11364719
0.03182264 0.0075062942 0.19400001 8601667
0.032734919 0.0075062942 0.19400001 9325903
0.033647198 0.0075062942 0.19400001 10577253
0.034559477 0.0075062942 0.19400001 10710123
0.035471752 0.0075062942 0.19400001 9788767
0.036384027 0.0075062942 0.19400001 9919583
0.037296306 0.0075062942 0.19400001 10378857
0.038208585 0.0075062942 0.19400001 13996700
0.039120864 0.0075062942 0.19400001 14849183
0.040033139 0.0075062942 0.19400001 13336194
0.040734358 0.0074676014 0.193 13993863
0.041641936 0.0074676014 0.193 13861507
0.04254951 0.0074676014 0.193 14848918
0.043457083 0.0074676014 0.193 13993609
0.044364657 0.0074676014 0.193 15703461
0.045272235 0.0074676014 0.193 16690356
0.046179809 0.0074676014 0.193 16494258
0.047087386 0.0074676014 0.193 15773363
0.047746282 0.0074289092 0.192 8083037
-0.0155353 0.0083751762 0.193 3223602
-0.014627726 0.0083751762 0.193 3944245
-0.01372015 0.0083751762 0.193 12227734
-0.012812574 0.0083751762 0.193 14129308
-0.011905 0.0083751762 0.193 14258841
-0.010997425 0.0083751762 0.193 14059665
-0.010142128 0.0084185712 0.19400001 15636896
-0.009229851 0.0084185712 0.19400001 16755632
-0.008317573 0.0084185712 0.19400001 16756146
-0.007405296 0.0084185712 0.19400001 16756148
-0.006493018 0.0084185712 0.19400001 16294574
-0.00558074 0.0084185712 0.19400001 14324382
-0.0046684626 0.0084185712 0.19400001 16769001
-0.0037561848 0.0084185712 0.19400001 16767463
-0.0028439073 0.0084185712 0.19400001 14459050
-0.0019316298 0.0084185712 0.19400001 15245738
-0.0010193522 0.0084185712 0.19400001 14391199
-0.00010707458 0.0084185712 0.19400001 14852263
0.00080520299 0.0084185712 0.19400001 14983334
0.0017174807 0.0084185712 0.19400001 15112607
0.0026297583 0.0084185712 0.19400001 15774135
0.0035420358 0.0084185712 0.19400001 16764884
0.0044543133 0.0084185712 0.19400001 16767197
0.0053665913 0.0084185712 0.19400001 16764365
0.0062788692 0.0084185712 0.19400001 13802655
0.0071911463 0.0084185712 0.19400001 13932956
0.0081034247 0.0084185712 0.19400001 14523035
0.0090157017 0.0084185712 0.19400001 15378344
0.0099279787 0.0084185712 0.19400001 15508390
0.010840257 0.0084185712 0.19400001 16100527
0.011752534 0.0084185712 0.19400001 14456220
0.012664812 0.0084185712 0.19400001 16768487
0.01357709 0.0084185712 0.19400001 14587808
0.014489368 0.0084185712 0.19400001 16034225
0.015401646 0.0084185712 0.19400001 15771307
0.016313922 0.0084185712 0.19400001 14981791
0.017226201 0.0084185712 0.19400001 15573926
0.018138478 0.0084185712 0.19400001 14981791
0.019050756 0.0084185712 0.19400001 13403282
0.019963032 0.0084185712 0.19400001 16763864
0.020875311 0.0084185712 0.19400001 14325667
0.021787588 0.0084185712 0.19400001 13863315
0.022699866 0.0084185712 0.19400001 13205383
0.023612143 0.0084185712 0.19400001 13007231
0.02452442 0.0084185712 0.19400001 13862540
0.025436699 0.0084185712 0.19400001 16560828
0.026348976 0.0084185712 0.19400001 16761804
0.027261255 0.0084185712 0.19400001 15781070
0.028173532 0.0084185712 0.19400001 16776693
0.029085808 0.0084185712 0.19400001 16777207
0.029998086 0.0084185712 0.19400001 16770277
0.030910363 0.0084185712 0.19400001 14718365
0.03182264 0.0084185712 0.19400001 13467782
0.032734919 0.0084185712 0.19400001 13337223
0.033647198 0.0084185712 0.19400001 12746626
0.034559477 0.0084185712 0.19400001 12221565
0.035471752 0.0084185712 0.19400001 10971757
0.036384027 0.0084185712 0.19400001 16764629
0.037296306 0.0084185712 0.19400001 16763088
0.038208585 0.0084185712 0.19400001 16769000
0.039120864 0.0084185712 0.19400001 16035252
0.040033139 0.0084185712 0.19400001 16098987
0.040734358 0.0083751762 0.193 15901608
0.041641936 0.0083751762 0.193 16098217
0.04254951 0.0083751762 0.193 16360619
0.043457083 0.0083751762 0.193 16360619
0.044364657 0.0083751762 0.193 16623793
0.045272235 0.0083751762 0.193 16361391
0.046179809 0.0083751762 0.193 15838643
0.047087386 0.0083751762 0.193 11105658
0.047746282 0.0083317813 0.192 6110782
-0.0155353 0.0092827519 0.193 9407372
-0.014627726 0.0092827519 0.193 4602426
-0.01372015 0.0092827519 0.193 6308411
-0.012812574 0.0092827519 0.193 11763840
-0.011905 0.0092827519 0.193 14457503
-0.010997425 0.0092827519 0.193 14522013
-0.010142128 0.0093308492 0.19400001 15572643
-0.009229851 0.0093308492 0.19400001 16296366
-0.008317573 0.0093308492 0.19400001 16229801
-0.007405296 0.0093308492 0.19400001 15703457
-0.006493018 0.0093308492 0.19400001 15703461
-0.00558074 0.0093308492 0.19400001 14981289
-0.0046684626 0.0093308492 0.19400001 16771832
-0.0037561848 0.0093308492 0.19400001 16770285
-0.0028439073 0.0093308492 0.19400001 16765917
-0.0019316298 0.0093308492 0.19400001 15639978
-0.0010193522 0.0093308492 0.19400001 14588060
-0.00010707458 0.0093308492 0.19400001 14524833
0.00080520299 0.0093308492 0.19400001 14720927
0.0017174807 0.0093308492 0.19400001 16034477
0.0026297583 0.0093308492 0.19400001 14784410
0.0035420358 0.0093308492 0.19400001 14653599
0.0044543133 0.0093308492 0.19400001 14326689
0.0053665913 0.0093308492 0.19400001 13933728
0.0062788692 0.0093308492 0.19400001 13276309
0.0071911463 0.0093308492 0.19400001 13735063
0.0081034247 0.0093308492 0.19400001 13799825
0.0090157017 0.0093308492 0.19400001 14522265
0.0099279787 0.0093308492 0.19400001 14653849
0.010840257 0.0093308492 0.19400001 14785435
0.011752534 0.0093308492 0.19400001 14981787
0.012664812 0.0093308492 0.19400001 14717332
0.01357709 0.0093308492 0.19400001 14652054
0.014489368 0.0093308492 0.19400001 15375777
0.015401646 0.0093308492 0.19400001 14454675
0.016313922 0.0093308492 0.19400001 14323859
0.017226201 0.0093308492 0.19400001 15573926
0.018138478 0.0093308492 0.19400001 14323091
0.019050756 0.0093308492 0.19400001 13271176
0.019963032 0.0093308492 0.19400001 13600911
0.020875311 0.0093308492 0.19400001 14127255
0.021787588 0.0093308492 0.19400001 13995923
0.022699866 0.0093308492 0.19400001 13666188
0.023612143 0.0093308492 0.19400001 13402759
0.02452442 0.0093308492 0.19400001 14455447
0.025436699 0.0093308492 0.19400001 16761289
0.026348976 0.0093308492 0.19400001 15904184
0.027261255 0.0093308492 0.19400001 16769002
0.028173532 0.0093308492 0.19400001 16776697
0.029085808 0.0093308492 0.19400001 16777207
0.029998086 0.0093308492 0.19400001 16767709
0.030910363 0.0093308492 0.19400001 16230321
0.03182264 0.0093308492 0.19400001 16098989
0.032734919 0.0093308492 0.19400001 16231088
0.033647198 0.0093308492 0.19400001 15047841
0.034559477 0.0093308492 0.19400001 14786209
0.035471752 0.0093308492 0.19400001 13405587
0.036384027 0.0093308492 0.19400001 16766170
0.037296306 0.0093308492 0.19400001 16633047
0.038208585 0.0093308492 0.19400001 16765919
0.039120864 0.0093308492 0.19400001 15378353
0.040033139 0.0093308492 0.19400001 16427182
0.040734358 0.0092827519 0.193 16229801
0.041641936 0.0092827519 0.193 15966629
0.04254951 0.0092827519 0.193 16164008
0.043457083 0.0092827519 0.193 16756659
0.044364657 0.0092827519 0.193 16757174
0.045272235 0.0092827519 0.193 15772850
0.046179809 0.0092827519 0.193 10778494
0.04684341 0.0092346547 0.192 8941684
0.047746282 0.0092346547 0.192 6839388
-0.0155353 0.010190327 0.193 2631463
-0.014627726 0.010190327 0.193 3747631
-0.01372015 0.010190327 0.193 7955039
-0.012812574 0.010190327 0.193 11307396
-0.011905 0.010190327 0.193 12683913
-0.010997425 0.010190327 0.193 12680061
-0.010142128 0.010243126 0.19400001 13929101
-0.009229851 0.010243126 0.19400001 14848920
-0.008317573 0.010243126 0.19400001 16032422
-0.007405296 0.010243126 0.19400001 14716562
-0.006493018 0.010243126 0.19400001 15966631
-0.00558074 0.010243126 0.19400001 16097449
-0.0046684626 0.010243126 0.19400001 16229805
-0.0037561848 0.010243126 0.19400001 15441059
-0.0028439073 0.010243126 0.19400001 15309471
-0.0019316298 0.010243126 0.19400001 15770535
-0.0010193522 0.010243126 0.19400001 15443367
-0.00010707458 0.010243126 0.19400001 14326169
0.00080520299 0.010243126 0.19400001 15378344
0.0017174807 0.010243126 0.19400001 15309469
0.0026297583 0.010243126 0.19400001 14585748
0.0035420358 0.010243126 0.19400001 14454675
0.0044543133 0.010243126 0.19400001 14324888
0.0053665913 0.010243126 0.19400001 14392480
0.0062788692 0.010243126 0.19400001 12287879
0.0071911463 0.010243126 0.19400001 12814477
0.0081034247 0.010243126 0.19400001 13537425
0.0090157017 0.010243126 0.19400001 13800597
0.0099279787 0.010243126 0.19400001 13536140
0.010840257 0.010243126 0.19400001 14719644
0.011752534 0.010243126 0.19400001 14652822
0.012664812 0.010243126 0.19400001 14521236
0.01357709 0.010243126 0.19400001 14454673
0.014489368 0.010243126 0.19400001 14455445
0.015401646 0.010243126 0.19400001 14323859
0.016313922 0.010243126 0.19400001 13402757
0.017226201 0.010243126 0.19400001 13336964
0.018138478 0.010243126 0.19400001 13402757
0.019050756 0.010243126 0.19400001 12614268
0.019963032 0.010243126 0.19400001 13536142
0.020875311 0.010243126 0.19400001 13733521
0.021787588 0.010243126 0.19400001 13733521
0.022699866 0.010243126 0.19400001 13865107
0.023612143 0.010243126 0.19400001 14258323
0.02452442 0.010243126 0.19400001 14323859
0.025436699 0.010243126 0.19400001 14519185
0.026348976 0.010243126 0.19400001 15902123
0.027261255 0.010243126 0.19400001 15115951
0.028173532 0.010243126 0.19400001 15777992
0.029085808 0.010243126 0.19400001 16175828
0.029998086 0.010243126 0.19400001 15381174
0.030910363 0.010243126 0.19400001 15046560
0.03182264 0.010243126 0.19400001 14387601
0.032734919 0.010243126 0.19400001 16165295
0.033647198 0.010243126 0.19400001 15113377
0.034559477 0.010243126 0.19400001 14523037
0.035471752 0.010243126 0.19400001 13996954
0.036384027 0.010243126 0.19400001 16765399
0.037296306 0.010243126 0.19400001 16767199
0.038208585 0.010243126 0.19400001 16767717
0.039120864 0.010243126 0.19400001 15051187
0.040033139 0.010243126 0.19400001 14718619
0.040945418 0.010243126 0.19400001 16362411
0.041641936 0.010190327 0.193 16032422
0.04254951 0.010190327 0.193 14454160
0.043457083 0.010190327 0.193 13204606
0.044364657 0.010190327 0.193 13207688
-0.0155353 0.011097902 0.193 3356215
-0.014627726 0.011097902 0.193 3552824
-0.01372015 0.011097902 0.193 3091244
-0.012812574 0.011097902 0.193 3087134
-0.011966684 0.011155404 0.19400001 10713980
-0.011054406 0.011155404 0.19400001 11499639
-0.010142128 0.011155404 0.19400001 12615038
-0.009229851 0.011155404 0.19400001 13074819
-0.008317573 0.011155404 0.19400001 13402757
-0.007405296 0.011155404 0.19400001 13402757
-0.006493018 0.011155404 0.19400001 13073022
-0.00558074 0.011155404 0.19400001 13467267
-0.0046684626 0.011155404 0.19400001 13993611
-0.0037561848 0.011155404 0.19400001 14520466
-0.0028439073 0.011155404 0.19400001 14718615
-0.0019316298 0.011155404 0.19400001 14916253
-0.0010193522 0.011155404 0.19400001 14852002
-0.00010707458 0.011155404 0.19400001 12879754
0.00080520299 0.011155404 0.19400001 13866136
0.0017174807 0.011155404 0.19400001 13797774
0.0026297583 0.011155404 0.19400001 14125710
0.0035420358 0.011155404 0.19400001 14192273
0.0044543133 0.011155404 0.19400001 14588058
0.0053665913 0.011155404 0.19400001 14721445
0.0062788692 0.011155404 0.19400001 11762305
0.0071911463 0.011155404 0.19400001 13012372
0.0081034247 0.011155404 0.19400001 13340305
0.0090157017 0.011155404 0.19400001 13471891
0.0099279787 0.011155404 0.19400001 13601681
0.010840257 0.011155404 0.19400001 14324118
0.011752534 0.011155404 0.19400001 14521238
0.012664812 0.011155404 0.19400001 14323859
0.01357709 0.011155404 0.19400001 14258066
0.014489368 0.011155404 0.19400001 14126739
0.015401646 0.011155404 0.19400001 13731981
0.016313922 0.011155404 0.19400001 13139844
0.017226201 0.011155404 0.19400001 13139842
0.018138478 0.011155404 0.19400001 13337221
0.019050756 0.011155404 0.19400001 12615040
0.019963032 0.011155404 0.19400001 12813448
0.020875311 0.011155404 0.19400001 13076620
0.021787588 0.011155404 0.19400001 13273999
0.022699866 0.011155404 0.19400001 13405069
0.023612143 0.011155404 0.19400001 13996691
0.02452442 0.011155404 0.19400001 14127507
0.025436699 0.011155404 0.19400001 14652824
0.026348976 0.011155404 0.19400001 14783640
0.027261255 0.011155404 0.19400001 16759490
0.028173532 0.011155404 0.19400001 16760260
0.029085808 0.011155404 0.19400001 16765911
0.029998086 0.011155404 0.19400001 16765139
0.030910363 0.011155404 0.19400001 16759485
0.03182264 0.011155404 0.19400001 16033194
0.032734919 0.011155404 0.19400001 16759230
0.033647198 0.011155404 0.19400001 16561596
0.034559477 0.011155404 0.19400001 15838643
0.035471752 0.011155404 0.19400001 14062232
0.036384027 0.011155404 0.19400001 15707572
0.037296306 0.011155404 0.19400001 15774394
0.038208585 0.011155404 0.19400001 16765912
0.039120864 0.011155404 0.19400001 15310759
0.040033139 0.011155404 0.19400001 14389654
0.040945418 0.011155404 0.19400001 15112605
0.041641936 0.011097902 0.193 13994894
0.04254951 0.011097902 0.193 12944003
0.043457083 0.011097902 0.193 13143694
-0.015615793 0.012067682 0.19400001 4145733
-0.014703517 0.012067682 0.19400001 4475466
-0.013791239 0.012067682 0.19400001 4540487
-0.012878961 0.012067682 0.19400001 4605253
-0.012028367 0.012129886 0.19500001 4534580
-0.011054406 0.012067682 0.19400001 10779775
-0.010194408 0.012129886 0.19500001 11697277
-0.0092774276 0.012129886 0.19500001 12617096
-0.0083604474 0.012129886 0.19500001 12549760
-0.0074434676 0.012129886 0.19500001 12944003
-0.0065264869 0.012129886 0.19500001 13995921
-0.0056095067 0.012129886 0.19500001 13731977
-0.004692527 0.012129886 0.19500001 13468807
-0.0037755468 0.012129886 0.19500001 13468807
-0.0028585668 0.012129886 0.19500001 14127255
-0.0019415867 0.012129886 0.19500001 13930646
-0.0010246066 0.012129886 0.19500001 13931931
-0.00010762651 0.012129886 0.19500001 12157576
0.00080935354 0.012129886 0.19500001 13011602
0.0017263338 0.012129886 0.19500001 12945036
0.0026433137 0.012129886 0.19500001 14128025
0.0035602937 0.012129886 0.19500001 14193302
0.0044772737 0.012129886 0.19500001 14128792
0.0053942539 0.012129886 0.19500001 14129308
0.0063112346 0.012129886 0.19500001 13275028
0.0072282143 0.012129886 0.19500001 12814477
0.0081451945 0.012129886 0.19500001 13669270
0.0090621747 0.012129886 0.19500001 13669011
0.009979154 0.012129886 0.19500001 13865107
0.010896134 0.012129886 0.19500001 14127509
0.011813114 0.012129886 0.19500001 13666958
0.012730094 0.012129886 0.19500001 13798290
0.013647075 0.012129886 0.19500001 13535890
0.014564055 0.012129886 0.19500001 13076368
0.015481035 0.012129886 0.19500001 12747657
0.016398015 0.012129886 0.19500001 12878471
0.017314995 0.012129886 0.19500001 13206923
0.018231975 0.012129886 0.19500001 13075337
0.019148955 0.012129886 0.19500001 13405585
0.020065935 0.012129886 0.19500001 13471893
0.020982916 0.012129886 0.19500001 13340307
0.021899896 0.012129886 0.19500001 12945547
0.022816876 0.012129886 0.19500001 13076620
0.023733856 0.012129886 0.19500001 13340046
0.024650836 0.012129886 0.19500001 13601933
0.025567817 0.012129886 0.19500001 13865105
0.026484797 0.012129886 0.19500001 13995921
0.027401777 0.012129886 0.19500001 13995923
0.028318757 0.012129886 0.19500001 14785185
0.029235736 0.012129886 0.19500001 14323864
0.030152716 0.012129886 0.19500001 15047841
0.031069696 0.012129886 0.19500001 14258323
0.031986676 0.012129886 0.19500001 14389652
0.032734919 0.012067682 0.19400001 13929360
0.033647198 0.012067682 0.19400001 13271946
0.034559477 0.012067682 0.19400001 12745602
0.035471752 0.012067682 0.19400001 12745602
0.036384027 0.012067682 0.19400001 13206153
0.037296306 0.012067682 0.19400001 13140360
0.038208585 0.012067682 0.19400001 12877958
0.039120864 0.012067682 0.19400001 12350844
0.040033139 0.012067682 0.19400001 12351098
0.040945418 0.012067682 0.19400001 12680063
0.041641936 0.012005477 0.193 12747909
0.04254951 0.012005477 0.193 12618381
-0.015615793 0.012979959 0.19400001 3882561
-0.014703517 0.012979959 0.19400001 4737870
-0.013791239 0.012979959 0.19400001 4737868
-0.012878961 0.012979959 0.19400001 4869454
-0.012090052 0.013113773 0.19600001 5261902
-0.011111388 0.013046866 0.19500001 7954019
-0.010246687 0.013113773 0.19600001 9791595
-0.0093250042 0.013113773 0.19600001 11171964
-0.0084033217 0.013113773 0.19600001 11631486
-0.0074816393 0.013113773 0.19600001 12221311
-0.0065599564 0.013113773 0.19600001 13076104
-0.0056382739 0.013113773 0.19600001 13668241
-0.004716591 0.013113773 0.19600001 13535888
-0.0037949085 0.013113773 0.19600001 13470095
-0.0028732261 0.013113773 0.19600001 13207177
-0.0019515436 0.013113773 0.19600001 13207690
-0.0010298609 0.013113773 0.19600001 13275028
-0.00010817844 0.013113773 0.19600001 11764103
0.0008135041 0.013113773 0.19600001 13078678
0.0017351868 0.013113773 0.19600001 13603479
0.0026568694 0.013113773 0.19600001 13207438
0.0035785518 0.013113773 0.19600001 13733269
0.0045002345 0.013113773 0.19600001 13865368
0.005421917 0.013113773 0.19600001 13602196
0.0063435999 0.013113773 0.19600001 13010829
0.0072652819 0.013113773 0.19600001 13602194
0.0081869652 0.013113773 0.19600001 13931159
0.0091086468 0.013113773 0.19600001 13996952
0.010030329 0.013113773 0.19600001 14128538
0.010952013 0.013113773 0.19600001 14260124
0.011873694 0.013113773 0.19600001 14062745
0.012795377 0.013113773 0.19600001 13339024
0.01371706 0.013113773 0.19600001 13011088
0.014638742 0.013113773 0.19600001 12684692
0.015560426 0.013113773 0.19600001 12881299
0.016482107 0.013113773 0.19600001 13143442
0.017403791 0.013113773 0.19600001 12813963
0.018325472 0.013113773 0.19600001 13471893
0.019247156 0.013113773 0.19600001 13603479
0.020168837 0.013113773 0.19600001 13142674
0.021090521 0.013113773 0.19600001 13142928
0.022012204 0.013113773 0.19600001 13669270
0.022933885 0.013113773 0.19600001 13274766
0.023855567 0.013113773 0.19600001 12879495
0.02477725 0.013113773 0.19600001 13536401
0.025698934 0.013113773 0.19600001 13536401
0.026620617 0.013113773 0.19600001 12614786
0.027542299 0.013113773 0.19600001 12549506
0.028463982 0.013113773 0.19600001 12483713
0.029385662 0.013113773 0.19600001 12681092
0.030307345 0.013113773 0.19600001 13404302
0.031229028 0.013113773 0.19600001 13535118
0.032150712 0.013113773 0.19600001 12614016
0.032903656 0.013046866 0.19500001 12615040
0.033820637 0.013046866 0.19500001 13009798
0.034737617 0.013046866 0.19500001 12878212
0.035654597 0.013046866 0.19500001 12811649
0.036571577 0.013046866 0.19500001 12944005
0.037296306 0.012979959 0.19400001 13206923
0.038208585 0.012979959 0.19400001 13141643
0.039120864 0.012979959 0.19400001 12945034
0.040033139 0.012979959 0.19400001 12352897
0.040945418 0.012979959 0.19400001 12748168
0.041641936 0.012913052 0.193 11105142
0.04254951 0.012913052 0.193 9859450
-0.0155353 0.013820628 0.193 3882561
-0.014627726 0.013820628 0.193 4473928
-0.013791239 0.013892237 0.19400001 4145733
-0.012878961 0.013892237 0.19400001 4277319
-0.012151736 0.014107066 0.19700001 4145733
-0.011282332 0.014178676 0.19800001 5193542
-0.010351244 0.014178676 0.19800001 9135461
-0.0094201574 0.014178676 0.19800001 10777974
-0.0084461952 0.014107066 0.19700001 11303802
-0.0075198109 0.014107066 0.19700001 11565178
-0.0065934253 0.014107066 0.19700001 13011081
-0.0056670406 0.014107066 0.19700001 13470862
-0.0047406554 0.014107066 0.19700001 13865620
-0.0038142703 0.014107066 0.19700001 13996693
-0.0028878856 0.014107066 0.19700001 13997206
-0.0019615004 0.014107066 0.19700001 13932183
-0.0010351153 0.014107066 0.19700001 13143958
-0.00010873038 0.014107066 0.19700001 11170681
0.0008176546 0.014107066 0.19700001 13275028
0.0017440397 0.014107066 0.19700001 13011340
0.0026704248 0.014107066 0.19700001 12879241
0.0035968097 0.014107066 0.19700001 13075337
0.0045231949 0.014107066 0.19700001 12943753
0.0054495796 0.014107066 0.19700001 12878473
0.0063759652 0.014107066 0.19700001 13602196
0.0073023499 0.014107066 0.19700001 14062747
0.0082287351 0.014107066 0.19700001 13667989
0.0091551198 0.014107066 0.19700001 13799575
0.010081504 0.014107066 0.19700001 13865366
0.01100789 0.014107066 0.19700001 13996952
0.011934275 0.014107066 0.19700001 13208208
0.01286066 0.014107066 0.19700001 12023934
0.013787045 0.014107066 0.19700001 12222856
0.01471343 0.014107066 0.19700001 12685207
0.015639815 0.014107066 0.19700001 12882582
0.0165662 0.014107066 0.19700001 13209235
0.017492585 0.014107066 0.19700001 12551305
0.01841897 0.014107066 0.19700001 12156547
0.019345356 0.014107066 0.19700001 13734811
0.020271739 0.014107066 0.19700001 13274260
0.021198126 0.014107066 0.19700001 12945295
0.02212451 0.014107066 0.19700001 12880270
0.023050897 0.014107066 0.19700001 12748684
0.02397728 0.014107066 0.19700001 12484998
0.024903666 0.014107066 0.19700001 13075852
0.025830051 0.014107066 0.19700001 13470610
0.026756436 0.014107066 0.19700001 13207438
0.027682822 0.014107066 0.19700001 12878473
0.028609207 0.014107066 0.19700001 12483715
0.02953559 0.014107066 0.19700001 12483713
0.030461974 0.014107066 0.19700001 12681092
0.031388361 0.014107066 0.19700001 12220541
0.032314748 0.014107066 0.19700001 12220028
0.033072393 0.014035456 0.19600001 12483200
0.033994079 0.014035456 0.19600001 12944005
0.03491576 0.014035456 0.19600001 13009798
0.035837442 0.014035456 0.19600001 12877958
0.036759123 0.014035456 0.19600001 12417920
0.037488557 0.013963846 0.19500001 12352127
0.038405538 0.013963846 0.19500001 12484998
0.039322518 0.013963846 0.19500001 12485512
0.040033139 0.013892237 0.19400001 12223108
0.040945418 0.013892237 0.19400001 11895941
0.041857697 0.013892237 0.19400001 10187901
-0.012151736 0.015033451 0.19700001 3488573
-0.011453277 0.015338698 0.20100001 3353907
-0.010455802 0.015262387 0.2 7362134
-0.0095153106 0.015262387 0.2 10121073
-0.0085319439 0.015186075 0.19900002 10909558
-0.0075961542 0.015186075 0.19900002 11961219
-0.0066603641 0.015186075 0.19900002 11696766
-0.0056958073 0.015109763 0.19800001 12156031
-0.0047647199 0.015109763 0.19800001 12813448
-0.0038336322 0.015109763 0.19800001 13865366
-0.0029025448 0.015109763 0.19800001 13866138
-0.0019714574 0.015109763 0.19800001 13669272
-0.0010403697 0.015109763 0.19800001 13340307
-0.00010928231 0.015109763 0.19800001 13010829
0.00082180515 0.015109763 0.19800001 12089727
0.0017528927 0.015109763 0.19800001 12023934
0.0026839804 0.015109763 0.19800001 12287104
0.0036150676 0.015109763 0.19800001 12943751
0.0045461552 0.015109763 0.19800001 13140360
0.0054772426 0.015109763 0.19800001 13271946
0.0064083305 0.015109763 0.19800001 13864083
0.0073394175 0.015109763 0.19800001 13864083
0.0082705058 0.015109763 0.19800001 13995669
0.0092015928 0.015109763 0.19800001 14193818
0.01013268 0.015109763 0.19800001 13931159
0.011063768 0.015109763 0.19800001 13076620
0.011994855 0.015109763 0.19800001 12550278
0.012925942 0.015109763 0.19800001 11958141
0.01385703 0.015109763 0.19800001 11827328
0.014788118 0.015109763 0.19800001 12948891
0.015719205 0.015109763 0.19800001 12882582
0.016650293 0.015109763 0.19800001 13669272
0.017581381 0.015109763 0.19800001 12024707
0.018512469 0.015109763 0.19800001 11827328
0.019443557 0.015109763 0.19800001 12287365
0.020374643 0.015109763 0.19800001 12682123
0.021305731 0.015109763 0.19800001 12024193
0.022236818 0.015109763 0.19800001 12024707
0.023167906 0.015109763 0.19800001 12485258
0.024098992 0.015109763 0.19800001 12288133
0.02503008 0.015109763 0.19800001 12221826
0.025961168 0.015109763 0.19800001 13208208
0.026892256 0.015109763 0.19800001 13010059
0.027823344 0.015109763 0.19800001 13010059
0.028754432 0.015109763 0.19800001 13141645
0.029685516 0.015109763 0.19800001 13339024
0.030616604 0.015109763 0.19800001 12812678
0.031547692 0.015109763 0.19800001 12154748
0.03247878 0.015109763 0.19800001 11826553
0.03324113 0.015033451 0.19700001 12287104
0.034167517 0.015033451 0.19700001 13405069
0.035093904 0.015033451 0.19700001 13011081
0.036020283 0.015033451 0.19700001 11892348
0.036946669 0.015033451 0.19700001 11432824
0.037680805 0.014957139 0.19600001 11959684
0.03860249 0.014957139 0.19600001 12158346
0.039524172 0.014957139 0.19600001 12422031
0.040239498 0.014880827 0.19500001 11568008
-0.012275103 0.016121866 0.19900002 3159608
-0.01156724 0.016445924 0.20300001 3487033
-0.01061264 0.016445924 0.20300001 4732729
-0.0096104639 0.016364908 0.20200001 7952475
-0.0086605661 0.016364908 0.20200001 10647417
-0.0076724971 0.016283894 0.20100001 10252400
-0.006727302 0.016283894 0.20100001 11303804
-0.0057533402 0.01620288 0.2 11961219
-0.0047887838 0.016121866 0.19900002 12091522
-0.0038529939 0.016121866 0.19900002 12813961
-0.0029172043 0.016121866 0.19900002 13273999
-0.0019814142 0.016121866 0.19900002 13208208
-0.0010456241 0.016121866 0.19900002 13010829
-0.00010983424 0.016121866 0.19900002 12878473
0.00082595571 0.016121866 0.19900002 12549508
0.0017617458 0.016121866 0.19900002 12352129
0.0026975358 0.016121866 0.19900002 13010057
0.0036333255 0.016121866 0.19900002 14456990
0.0045691156 0.016121866 0.19900002 14325658
0.0055049057 0.016121866 0.19900002 14194072
0.0064406958 0.016121866 0.19900002 14457244
0.0073764855 0.016121866 0.19900002 14259095
0.0083122756 0.016121866 0.19900002 13470095
0.0092480658 0.016121866 0.19900002 13272716
0.010183855 0.016121866 0.19900002 13207436
0.011119645 0.016121866 0.19900002 13010827
0.012055435 0.016121866 0.19900002 12352897
0.012991224 0.016121866 0.19900002 12089727
0.013927015 0.016121866 0.19900002 11959684
0.014862806 0.016121866 0.19900002 11502215
0.015798597 0.016121866 0.19900002 12554133
0.016734384 0.016121866 0.19900002 13011602
0.017670175 0.016121866 0.19900002 12156293
0.018605966 0.016121866 0.19900002 11761535
0.019541755 0.016121866 0.19900002 12024195
0.020477545 0.016121866 0.19900002 11761021
0.021413336 0.016121866 0.19900002 11695742
0.022349125 0.016121866 0.19900002 11762305
0.023284916 0.016121866 0.19900002 11630719
0.024220705 0.016121866 0.19900002 12157317
0.025156494 0.016121866 0.19900002 12486282
0.026092285 0.016121866 0.19900002 12551305
0.027028076 0.016121866 0.19900002 13142928
0.027963866 0.016121866 0.19900002 13340307
0.028899657 0.016121866 0.19900002 13208721
0.029835444 0.016121866 0.19900002 12748170
0.030771235 0.016121866 0.19900002 12813963
0.031707026 0.016121866 0.19900002 12748170
0.032642815 0.016121866 0.19900002 11892859
0.033409867 0.01604085 0.19800001 11958652
0.034340955 0.01604085 0.19800001 12484998
0.035272043 0.01604085 0.19800001 12879756
0.036203127 0.01604085 0.19800001 12880270
0.037134215 0.01604085 0.19800001 12025477
0.037873056 0.015959837 0.19700001 11237244
0.038799442 0.015959837 0.19700001 11697795
0.039524172 0.015878823 0.19600001 9067874
-0.011738185 0.017657673 0.20600002 2895666
-0.010769477 0.017657673 0.20600002 3549485
-0.0097531937 0.017571956 0.20500001 6769484
-0.0087891882 0.017571956 0.20500001 7951187
-0.007787012 0.017486239 0.20400001 9990770
-0.0067942403 0.017400522 0.20300001 10384499
-0.0058108736 0.017314805 0.20200001 11632769
-0.0048369123 0.017229088 0.20100001 11961219
-0.0038723554 0.017143371 0.2 12551303
-0.0029318633 0.017143371 0.2 12353410
-0.0019913709 0.017143371 0.2 12813448
-0.0010508785 0.017143371 0.2 12484483
-0.00011038617 0.017143371 0.2 13273999
0.00083010615 0.017143371 0.2 13536401
0.0017705987 0.017143371 0.2 12549506
0.002711091 0.017143371 0.2 13470610
0.0036515833 0.017143371 0.2 13931161
0.0045920755 0.017143371 0.2 14062747
0.0055325679 0.017143371 0.2 13996952
0.0064730607 0.017143371 0.2 13931929
0.0074135526 0.017143371 0.2 13340305
0.0083540455 0.017143371 0.2 13274514
0.0092945378 0.017143371 0.2 12748170
0.010235029 0.017143371 0.2 12945547
0.011175523 0.017143371 0.2 13076620
0.012116014 0.017143371 0.2 12879241
0.013056506 0.017143371 0.2 12615299
0.013996999 0.017143371 0.2 12286852
0.014937492 0.017143371 0.2 11369861
0.015877984 0.017143371 0.2 11304068
0.016818477 0.017143371 0.2 11894406
0.017758969 0.017143371 0.2 12287879
0.018699462 0.017143371 0.2 12024707
0.019639954 0.017143371 0.2 11892607
0.020580446 0.017143371 0.2 12024707
0.021520939 0.017143371 0.2 12222086
0.022461431 0.017143371 0.2 12420235
0.023401923 0.017143371 0.2 12025731
0.024342416 0.017143371 0.2 12289416
0.025282908 0.017143371 0.2 12355209
0.026223401 0.017143371 0.2 11960451
0.027163893 0.017143371 0.2 12881040
0.028104385 0.017143371 0.2 12881040
0.02904488 0.017143371 0.2 13275028
0.029985368 0.017143371 0.2 13208719
0.030925861 0.017143371 0.2 11366517
0.031866353 0.017143371 0.2 11630203
0.032806847 0.017143371 0.2 12156547
0.033578604 0.017057655 0.19900002 12222340
0.034514397 0.017057655 0.19900002 11761789
0.035450187 0.017057655 0.19900002 11301238
0.036385972 0.017057655 0.19900002 11893375
0.037321765 0.017057655 0.19900002 12157317
0.038065303 0.016971938 0.19800001 10908533
0.038799442 0.016886221 0.19700001 10251376
-0.011852147 0.018807217 0.208 3422008
-0.010926314 0.018897638 0.20900001 3946555
-0.0098959226 0.018807217 0.208 6639441
-0.008874937 0.018716799 0.20700002 7162955
-0.007901527 0.018716799 0.20700002 9596528
-0.0068611787 0.01853596 0.20500001 9595499
-0.0058684074 0.018445542 0.20400001 10712951
-0.0048850407 0.018355122 0.20300001 11633281
-0.0039110789 0.018264702 0.20200001 11763840
-0.002961182 0.018264702 0.20200001 12552073
-0.0020013277 0.018174283 0.20100001 12881038
-0.001056133 0.018174283 0.20100001 13077647
-0.0001109381 0.018174283 0.20100001 13011854
0.0008342567 0.018174283 0.20100001 12156031
0.0017794516 0.018174283 0.20100001 12813448
0.0027246466 0.018174283 0.20100001 13208206
0.0036698412 0.018174283 0.20100001 13208208
0.0046150358 0.018174283 0.20100001 13866138
0.0055602309 0.018174283 0.20100001 13536919
0.006505426 0.018174283 0.20100001 12814223
0.0074506206 0.018174283 0.20100001 12814223
0.0083958162 0.018174283 0.20100001 12156293
0.0093410108 0.018174283 0.20100001 12682891
0.010286205 0.018174283 0.20100001 11893375
0.0112314 0.018174283 0.20100001 12221826
0.012176595 0.018174283 0.20100001 12550276
0.013121789 0.018174283 0.20100001 13339022
0.014066984 0.018174283 0.20100001 12681864
0.01501218 0.018174283 0.20100001 12158863
0.015957374 0.018174283 0.20100001 11106437
0.016902568 0.018174283 0.20100001 11105660
0.017847763 0.018174283 0.20100001 12091270
0.018792959 0.018174283 0.20100001 12683407
0.019738154 0.018174283 0.20100001 12353674
0.020683348 0.018174283 0.20100001 12287879
0.021628544 0.018174283 0.20100001 13208981
0.022573739 0.018174283 0.20100001 13012372
0.023518933 0.018174283 0.20100001 12881553
0.024464127 0.018174283 0.20100001 12157830
0.025409322 0.018174283 0.20100001 12026244
0.026354518 0.018174283 0.20100001 11499900
0.027299713 0.018174283 0.20100001 12354955
0.028244909 0.018174283 0.20100001 12881299
0.029190104 0.018174283 0.20100001 12946833
0.030135296 0.018174283 0.20100001 12683661
0.031080492 0.018174283 0.20100001 13209235
0.032025687 0.018174283 0.20100001 12420489
0.032970883 0.018174283 0.20100001 12025731
0.033747341 0.018083863 0.2 11630973
0.034687832 0.018083863 0.2 12091524
0.035628326 0.018083863 0.2 12157317
0.036568817 0.018083863 0.2 11763588
0.037321765 0.017993445 0.19900002 10974072
0.038257554 0.017993445 0.19900002 9921897
0.038996391 0.017903026 0.19800001 8871776
-0.013262047 0.020451182 0.215 3620157
-0.01196611 0.019975575 0.21000001 3422008
-0.011030871 0.020070696 0.21100001 3684155
-0.0099910758 0.019975575 0.21000001 5193540
-0.0089606848 0.019880453 0.20900001 7164240
-0.0079778703 0.019880453 0.20900001 8214873
-0.006961586 0.01978533 0.208 9069155
-0.0059259408 0.019595088 0.20600002 10054767
-0.0049331691 0.019499965 0.20500001 10843513
-0.0039498028 0.019404843 0.20400001 10382962
-0.0029758413 0.019309722 0.20300001 10843253
-0.0020212415 0.019309722 0.20300001 11894658
-0.0010666418 0.019309722 0.20300001 12355209
-0.00011204195 0.019309722 0.20300001 12355209
0.00084255781 0.019309722 0.20300001 12091524
0.0017883047 0.0192146 0.20200001 13340307
0.002738202 0.0192146 0.20200001 13339794
0.0036880991 0.0192146 0.20200001 12879243
0.0046379967 0.0192146 0.20200001 12616584
0.005587894 0.0192146 0.20200001 12616330
0.0065377913 0.0192146 0.20200001 12222086
0.0074876887 0.0192146 0.20200001 12024707
0.008437586 0.0192146 0.20200001 11630719
0.0093874829 0.0192146 0.20200001 11499133
0.01033738 0.0192146 0.20200001 11893375
0.011287278 0.0192146 0.20200001 12287106
0.012237174 0.0192146 0.20200001 12221313
0.013187071 0.0192146 0.20200001 12681864
0.014136969 0.0192146 0.20200001 12945549
0.015086867 0.0192146 0.20200001 12618129
0.016036766 0.0192146 0.20200001 12685721
0.016986661 0.0192146 0.20200001 11501445
0.017936559 0.0192146 0.20200001 12091783
0.018886456 0.0192146 0.20200001 12683920
0.019836355 0.0192146 0.20200001 12683407
0.02078625 0.0192146 0.20200001 12946833
0.021736149 0.0192146 0.20200001 12420489
0.022686046 0.0192146 0.20200001 12091524
0.023635944 0.0192146 0.20200001 11894145
0.024585839 0.0192146 0.20200001 11894145
0.025535738 0.0192146 0.20200001 12025731
0.026485635 0.0192146 0.20200001 11894658
0.027435534 0.0192146 0.20200001 12092037
0.028385431 0.0192146 0.20200001 11894658
0.029335327 0.0192146 0.20200001 11894658
0.030285222 0.0192146 0.20200001 12092037
0.031235121 0.0192146 0.20200001 12026244
0.032185018 0.0192146 0.20200001 12289416
0.033134915 0.0192146 0.20200001 12355209
0.033916079 0.019119479 0.20100001 12092035
0.03486127 0.019119479 0.20100001 11170933
0.035806466 0.019119479 0.20100001 11105912
0.036751658 0.019119479 0.20100001 10317171
0.037509307 0.019024355 0.2 9725032
0.038257554 0.018929236 0.19900002 9398120
-0.015857276 0.019665377 0.19700001 3685180
-0.012080073 0.021162741 0.21200001 4606284
-0.01113543 0.021262566 0.21300001 4212296
-0.010086229 0.021162741 0.21200001 3618358
-0.0090035582 0.020963091 0.21000001 6705234
-0.0080160415 0.020963091 0.21000001 7886678
-0.0070285243 0.020963091 0.21000001 8478299
-0.0059834737 0.020763442 0.208 9004129
-0.0049572336 0.020563796 0.20600002 10055021
-0.0039885263 0.020563796 0.20600002 10647156
-0.00300516 0.020463971 0.20500001 10777972
-0.0020411552 0.020463971 0.20500001 10909558
-0.0010771506 0.020463971 0.20500001 11895687
-0.00011259389 0.020364147 0.20400001 12159113
0.00084670831 0.020364147 0.20400001 11828865
0.0018060107 0.020364147 0.20400001 12091524
0.002765313 0.020364147 0.20400001 12616584
0.0037246151 0.020364147 0.20400001 12287619
0.0046839174 0.020364147 0.20400001 12024447
0.0056432197 0.020364147 0.20400001 11893121
0.0065701571 0.020264322 0.20300001 11761789
0.0075247562 0.020264322 0.20300001 11103091
0.0084793568 0.020264322 0.20300001 11366777
0.0094339559 0.020264322 0.20300001 11630719
0.010388555 0.020264322 0.20300001 12552075
0.011343156 0.020264322 0.20300001 12682891
0.012297755 0.020264322 0.20300001 12484998
0.013252354 0.020264322 0.20300001 11892861
0.014206954 0.020264322 0.20300001 12024961
0.015161554 0.020264322 0.20300001 11565439
0.016116155 0.020264322 0.20300001 12619926
0.017070753 0.020264322 0.20300001 12159375
0.018025354 0.020264322 0.20300001 12224139
0.018979954 0.020264322 0.20300001 10973302
0.019934554 0.020264322 0.20300001 12025990
0.020889154 0.020264322 0.20300001 12683407
0.021843754 0.020264322 0.20300001 12354442
0.022798354 0.020264322 0.20300001 12223110
0.023752954 0.020264322 0.20300001 12420489
0.024707552 0.020264322 0.20300001 12354696
0.025662152 0.020264322 0.20300001 11894658
0.026616752 0.020264322 0.20300001 11828865
0.027571352 0.020264322 0.20300001 11566463
0.028525952 0.020264322 0.20300001 11829635
0.029480552 0.020264322 0.20300001 12290186
0.03043515 0.020264322 0.20300001 12355979
0.031389751 0.020264322 0.20300001 11961221
0.032344349 0.020264322 0.20300001 11500670
0.033298951 0.020264322 0.20300001 11237498
0.034253553 0.020264322 0.20300001 11040119
0.035034712 0.020164497 0.20200001 10842740
0.035984609 0.020164497 0.20200001 10514288
0.036934502 0.020164497 0.20200001 9922665
0.037509307 0.01996485 0.2 9200741
-0.015857276 0.02059176 0.19700001 3816766
-0.011187709 0.022368716 0.21400002 4477264
-0.010133806 0.022264188 0.21300001 6121322
-0.0091321813 0.022264188 0.21300001 4931905
-0.0080542136 0.022055134 0.21100001 6769484
-0.0070619937 0.022055134 0.21100001 8018779
-0.0060122409 0.02184608 0.20900001 8281438
-0.005005362 0.021741554 0.208 8148566
-0.0040272498 0.021741554 0.208 9398120
-0.0030344788 0.021637028 0.20700002 10516601
-0.002061069 0.021637028 0.20700002 10779773
-0.001082405 0.021532502 0.20600002 11107457
-0.00011369775 0.021532502 0.20600002 11501443
0.00085500942 0.021532502 0.20600002 12093066
0.0018237167 0.021532502 0.20600002 11435136
0.0027924238 0.021532502 0.20600002 11566209
0.0037611309 0.021532502 0.20600002 11895174
0.0047298381 0.021532502 0.20600002 12025990
0.0056708823 0.021427974 0.20500001 12157830
0.0066348878 0.021427974 0.20500001 12025731
0.0075988919 0.021427974 0.20500001 11696766
0.0085628973 0.021427974 0.20500001 12552075
0.0095269019 0.021427974 0.20500001 12486028
0.010490905 0.021427974 0.20500001 12091524
0.011454911 0.021427974 0.20500001 11959938
0.012418916 0.021427974 0.20500001 11894145
0.01338292 0.021427974 0.20500001 11959938
0.014346925 0.021427974 0.20500001 11894145
0.01531093 0.021427974 0.20500001 12026244
0.016274935 0.021427974 0.20500001 11568008
0.017238939 0.021427974 0.20500001 11370629
0.018202944 0.021427974 0.20500001 12093068
0.019166948 0.021427974 0.20500001 11763588
0.020130955 0.021427974 0.20500001 12486028
0.021094957 0.021427974 0.20500001 12420750
0.022058962 0.021427974 0.20500001 12420748
0.023022968 0.021427974 0.20500001 12354955
0.023986973 0.021427974 0.20500001 12092037
0.024950977 0.021427974 0.20500001 12092037
0.025914982 0.021427974 0.20500001 11500670
0.026878987 0.021427974 0.20500001 11500670
0.027842993 0.021427974 0.20500001 11237498
0.028806997 0.021427974 0.20500001 10842740
0.029771002 0.021427974 0.20500001 10776693
0.030735005 0.021427974 0.20500001 11763590
0.031699009 0.021427974 0.20500001 11632519
0.032503683 0.021323448 0.20400001 11040894
0.033462986 0.021323448 0.20400001 10646904
0.03442229 0.021323448 0.20400001 10252146
0.035208151 0.02121892 0.20300001 9989487
0.035984609 0.021114394 0.20200001 10121073
0.036934502 0.021114394 0.20200001 8674912
-0.0081305569 0.023265813 0.21300001 6838616
-0.007128932 0.023265813 0.21300001 6310216
-0.0061273077 0.023265813 0.21300001 6834507
-0.0051256833 0.023265813 0.21300001 8084059
-0.0040659732 0.022938125 0.21000001 8347231
-0.0030637973 0.022828896 0.20900001 9267051
-0.0020809826 0.022828896 0.20900001 10253946
-0.0010929137 0.022719666 0.208 10779775
-0.00011480161 0.022719666 0.208 10976384
0.00086331042 0.022719666 0.208 10910078
0.0018414226 0.022719666 0.208 10975871
0.0028195346 0.022719666 0.208 11502213
0.0037976466 0.022719666 0.208 11633029
0.0047757588 0.022719666 0.208 11830408
0.0057262084 0.022610439 0.20700002 11895687
0.0066996184 0.022610439 0.20700002 12224393
0.0076730275 0.022610439 0.20700002 11698047
0.0086464379 0.022610439 0.20700002 11434875
0.0096198469 0.022610439 0.20700002 11894658
0.010542081 0.02250121 0.20600002 12026244
0.011510788 0.02250121 0.20600002 11894658
0.012479495 0.02250121 0.20600002 11566209
0.013448202 0.02250121 0.20600002 10776693
0.01441691 0.02250121 0.20600002 10447728
0.015385618 0.02250121 0.20600002 11237759
0.016354324 0.02250121 0.20600002 11962776
0.017407123 0.022610439 0.20700002 11436685
0.018380534 0.022610439 0.20700002 12159377
0.019353945 0.022610439 0.20700002 11698312
0.020327354 0.022610439 0.20700002 12158348
0.021300763 0.022610439 0.20700002 12421520
0.022274172 0.022610439 0.20700002 11698310
0.023247583 0.022610439 0.20700002 11632515
0.024220992 0.022610439 0.20700002 11435390
0.025194401 0.022610439 0.20700002 11764355
0.026167812 0.022610439 0.20700002 11435390
0.027141221 0.022610439 0.20700002 11369597
0.028114632 0.022610439 0.20700002 11303804
0.029088041 0.022610439 0.20700002 10777460
0.029916227 0.02250121 0.20600002 10514034
0.030884931 0.02250121 0.20600002 10646134
0.031853639 0.02250121 0.20600002 10185585
0.032822348 0.02250121 0.20600002 9660011
0.033627018 0.022391981 0.20500001 9331559
0.034591027 0.022391981 0.20500001 9529708
0.035381589 0.022282749 0.20400001 9332842
0.036162753 0.02217352 0.20300001 7952221
-0.0071958699 0.0244953 0.215 5588551
-0.006184841 0.0244953 0.215 6638157
-0.0051738117 0.0244953 0.215 7887963
-0.0041046971 0.024153506 0.21200001 9860981
-0.0030784565 0.023925642 0.21000001 8742500
-0.0020909396 0.023925642 0.21000001 8872805
-0.0011034225 0.023925642 0.21000001 10846079
-0.00011535354 0.023811711 0.20900001 10977665
0.00086746097 0.023811711 0.20900001 10911361
0.0018591286 0.023925642 0.21000001 11240326
0.0028466457 0.023925642 0.21000001 11305347
0.0038341626 0.023925642 0.21000001 11305347
0.0048216796 0.023925642 0.21000001 11436933
0.0057815337 0.023811711 0.20900001 11436933
0.0067643486 0.023811711 0.20900001 11107968
0.0077471626 0.023811711 0.20900001 11239295
0.0087299775 0.023811711 0.20900001 11304316
0.009666319 0.023697779 0.208 10909044
0.010644431 0.023697779 0.208 10843251
0.011622543 0.023697779 0.208 10843251
0.012600655 0.023697779 0.208 11040378
0.013578767 0.023697779 0.208 11566211
0.014556879 0.023697779 0.208 11895174
0.015534991 0.023697779 0.208 11171966
0.016513104 0.023697779 0.208 10712709
0.017491216 0.023697779 0.208 11306129
0.018469328 0.023697779 0.208 11831695
0.01944744 0.023697779 0.208 11501447
0.020523753 0.023811711 0.20900001 10711417
0.021506567 0.023811711 0.20900001 11040380
0.02248938 0.023811711 0.20900001 10646136
0.023472195 0.023811711 0.20900001 10580343
0.024455011 0.023811711 0.20900001 10317169
0.025437824 0.023811711 0.20900001 10119790
0.026294224 0.023697779 0.208 9725032
0.027272336 0.023697779 0.208 9790825
0.028250448 0.023697779 0.208 9790825
0.029228562 0.023697779 0.208 10251376
0.030061452 0.023583848 0.20700002 9725032
0.031034859 0.023583848 0.20700002 10054767
0.032008268 0.023583848 0.20700002 9792108
0.032981679 0.023583848 0.20700002 9529706
0.033791054 0.023469917 0.20600002 8674910
0.034759764 0.023469917 0.20600002 7952473
0.035381589 0.023242053 0.20400001 7559259
-0.0062999078 0.025980867 0.21900001 3352622
-0.0051738117 0.025506331 0.215 5653829
-0.0041240589 0.025269063 0.21300001 6901581
-0.003093116 0.025031794 0.21100001 11308427
-0.0021008963 0.025031794 0.21100001 9728882
-0.0011086769 0.025031794 0.21100001 9399147
-0.00011645741 0.025031794 0.21100001 10386042
0.00087576202 0.025031794 0.21100001 10911872
0.0018679816 0.025031794 0.21100001 10911872
0.0028602011 0.025031794 0.21100001 11042945
0.0038524205 0.025031794 0.21100001 11305347
0.0048446399 0.025031794 0.21100001 10910589
0.0058368593 0.025031794 0.21100001 10647417
0.0068290792 0.025031794 0.21100001 10186868
0.0078212982 0.025031794 0.21100001 9923694
0.0087717483 0.02491316 0.21000001 10318193
0.009712792 0.024794526 0.20900001 10843765
0.010695606 0.024794526 0.20900001 10777972
0.011678421 0.024794526 0.20900001 10449007
0.012661235 0.024794526 0.20900001 10843767
0.013644049 0.024794526 0.20900001 11303550
0.014626864 0.024794526 0.20900001 11567236
0.01560968 0.024794526 0.20900001 11107455
0.016592495 0.024794526 0.20900001 10779525
0.0176594 0.02491316 0.21000001 11240336
0.018646918 0.02491316 0.21000001 9990007
0.019634435 0.02491316 0.21000001 10515322
0.020720152 0.025031794 0.21100001 9988206
0.02171237 0.025031794 0.21100001 10251378
0.02270459 0.025031794 0.21100001 10713212
0.02369681 0.025031794 0.21100001 10779775
0.02468903 0.025031794 0.21100001 10713214
0.025681248 0.025031794 0.21100001 9331561
0.026547054 0.02491316 0.21000001 9331048
0.027534571 0.02491316 0.21000001 9463147
0.028522089 0.02491316 0.21000001 9528940
0.029369084 0.024794526 0.20900001 9463915
0.030206675 0.024675891 0.208 9529706
0.031184783 0.024675891 0.208 9398120
0.032162897 0.024675891 0.208 8938084
0.032981679 0.024557259 0.20700002 8215647
0.033791054 0.024438625 0.20600002 6967122
0.034759764 0.024438625 0.20600002 5785164
-0.005294133 0.027134042 0.22000001 2696488
-0.0041821441 0.026640695 0.21600001 2956578
-0.0021008963 0.026024012 0.21100001 6375755
-0.0011086769 0.026024012 0.21100001 9269618
-0.00011700934 0.026147349 0.21200001 10453120
