# .PCD v0.7 - Point Cloud Data file format
VERSION 0.7
FIELDS x y z rgb
SIZE 4 4 4 4
TYPE F F F U
COUNT 1 1 1 1
WIDTH 1093
HEIGHT 1
VIEWPOINT 0 0 0 1 0 0 0
POINTS 1093
DATA ascii
0.0019388056 0.011563118 0.21900001 6639954
0.0029686447 0.011563118 0.21900001 5917516
0.0040167416 0.011615917 0.22000001 5261130
0.0050512836 0.011615917 0.22000001 5064521
0.0061134882 0.011668717 0.22100002 4605255
0.0071527325 0.011668717 0.22100002 5130829
-0.015284104 0.012362949 0.215 4736846
-0.014273075 0.012362949 0.215 4542803
-0.013385414 0.012477953 0.21700001 7831422
-0.012421962 0.012535455 0.21800001 9603468
-0.011396824 0.012535455 0.21800001 11241353
-0.010371689 0.012535455 0.21800001 12751762
-0.0093465513 0.012535455 0.21800001 13801370
-0.0083214147 0.012535455 0.21800001 13667728
-0.0072962777 0.012535455 0.21800001 14520468
-0.0062711411 0.012535455 0.21800001 15177883
-0.0052460046 0.012535455 0.21800001 15046301
-0.0042208675 0.012535455 0.21800001 14001067
-0.0031957312 0.012535455 0.21800001 16774901
-0.0021705944 0.012535455 0.21800001 16771302
-0.0011454576 0.012535455 0.21800001 11828863
-0.00012032092 0.012535455 0.21800001 11893373
0.00090481574 0.012535455 0.21800001 11501697
0.0019388056 0.012592957 0.21900001 10583423
0.0029686447 0.012592957 0.21900001 10518915
0.0040167416 0.012650459 0.22000001 11374224
0.005074244 0.012707962 0.22100002 11374222
0.0061134882 0.012707962 0.22100002 11374992
0.0071850978 0.012765463 0.22200002 10914441
0.0082661118 0.012822965 0.223 10388610
0.0093565313 0.012880467 0.22400001 9337721
0.010409882 0.012880467 0.22400001 6247765
0.011463233 0.012880467 0.22400001 5786961
0.012516585 0.012880467 0.22400001 5392969
0.013630517 0.01293797 0.22500001 5457735
0.01468857 0.01293797 0.22500001 5260356
0.015746625 0.01293797 0.22500001 5457735
0.016804678 0.01293797 0.22500001 5524042
0.017942123 0.012995471 0.22600001 5459792
0.019004878 0.012995471 0.22600001 5394771
-0.013447098 0.013560591 0.21800001 5000270
-0.012421962 0.013560591 0.21800001 5653061
-0.011396824 0.013560591 0.21800001 12685971
-0.010371689 0.013560591 0.21800001 12550276
-0.0093465513 0.013560591 0.21800001 12614268
-0.0083214147 0.013560591 0.21800001 14256781
-0.0072962777 0.013560591 0.21800001 15636891
-0.0062711411 0.013560591 0.21800001 15439512
-0.0052460046 0.013560591 0.21800001 16558000
-0.0042208675 0.013560591 0.21800001 14590124
-0.0031957312 0.013560591 0.21800001 16774905
-0.0021705944 0.013560591 0.21800001 16774130
-0.0011454576 0.013560591 0.21800001 12220289
-0.00012087285 0.013622796 0.21900001 13402260
0.00090896629 0.013622796 0.21900001 13404563
0.0019388056 0.013622796 0.21900001 10907509
0.0029686447 0.013622796 0.21900001 11960967
0.0040167416 0.013685 0.22000001 12289162
0.005074244 0.013747205 0.22100002 11894143
0.0061134882 0.013747205 0.22100002 12026242
0.0071850978 0.01380941 0.22200002 11895426
0.0082661118 0.013871614 0.223 11304316
0.0093565313 0.013933818 0.22400001 10977406
0.010409882 0.013933818 0.22400001 10123640
0.011463233 0.013933818 0.22400001 10978949
0.012516585 0.013933818 0.22400001 10716031
0.013630517 0.013996023 0.22500001 10979203
0.01468857 0.013996023 0.22500001 11373961
0.015746625 0.013996023 0.22500001 11045509
0.016804678 0.013996023 0.22500001 10849159
0.017862733 0.013996023 0.22500001 10323587
0.018920787 0.013996023 0.22500001 9205620
0.01997884 0.013996023 0.22500001 7428695
0.021036895 0.013996023 0.22500001 6180175
0.022094948 0.013996023 0.22500001 5326410
0.023153001 0.013996023 0.22500001 8284266
-0.015497372 0.014585728 0.21800001 5264214
-0.014472235 0.014585728 0.21800001 5263444
-0.013447098 0.014585728 0.21800001 5130316
-0.012421962 0.014585728 0.21800001 8018779
-0.011396824 0.014585728 0.21800001 12420741
-0.010371689 0.014585728 0.21800001 12877442
-0.0093465513 0.014585728 0.21800001 13929101
-0.0083214147 0.014585728 0.21800001 13927046
-0.0072962777 0.014585728 0.21800001 14386054
-0.0062711411 0.014585728 0.21800001 13003888
-0.0052460046 0.014585728 0.21800001 13860230
-0.0042208675 0.014585728 0.21800001 12877706
-0.0031957312 0.014585728 0.21800001 16773878
-0.0021705944 0.014585728 0.21800001 16774389
-0.0011454576 0.014585728 0.21800001 13864603
-0.00012087285 0.014652635 0.21900001 15440037
0.00090896629 0.014652635 0.21900001 12743292
0.0019388056 0.014652635 0.21900001 10905964
0.0029822004 0.014719542 0.22000001 12747405
0.0040167416 0.014719542 0.22000001 13797270
0.005074244 0.014786449 0.22100002 12813448
0.0061134882 0.014786449 0.22100002 12220282
0.0071850978 0.014853356 0.22200002 13272198
0.0082661118 0.014920262 0.223 12878723
0.0093565313 0.014987169 0.22400001 11237496
0.010409882 0.014987169 0.22400001 11041916
0.011463233 0.014987169 0.22400001 10516085
0.012572463 0.015054076 0.22500001 11040630
0.013630517 0.015054076 0.22500001 11829633
0.01468857 0.015054076 0.22500001 11961473
0.015746625 0.015054076 0.22500001 12026494
0.016804678 0.015054076 0.22500001 11894908
0.017862733 0.015054076 0.22500001 11762809
0.018920787 0.015054076 0.22500001 11698301
0.020067636 0.015120983 0.22600001 11369336
0.021130392 0.015120983 0.22600001 11698814
0.022193149 0.015120983 0.22600001 10777710
0.023255905 0.015120983 0.22600001 11040884
0.024318662 0.015120983 0.22600001 11302006
0.025493726 0.01518789 0.22700001 11170935
0.026561184 0.01518789 0.22700001 11106939
0.027628642 0.01518789 0.22700001 10713980
0.028696101 0.01518789 0.22700001 8413026
0.029894678 0.015254797 0.22800002 6836055
-0.015497372 0.015610864 0.21800001 5132628
-0.014472235 0.015610864 0.21800001 5526357
-0.013447098 0.015610864 0.21800001 6903128
-0.012421962 0.015610864 0.21800001 10384245
-0.011396824 0.015610864 0.21800001 12813702
-0.010371689 0.015610864 0.21800001 13008258
-0.0093465513 0.015610864 0.21800001 12480370
-0.0083214147 0.015610864 0.21800001 13071221
-0.0072962777 0.015610864 0.21800001 12870760
-0.0062711411 0.015610864 0.21800001 12870760
-0.0052460046 0.015610864 0.21800001 13003118
-0.0042208675 0.015610864 0.21800001 12086895
-0.0031957312 0.015610864 0.21800001 16764370
-0.0021705944 0.015610864 0.21800001 14523037
-0.0011454576 0.015610864 0.21800001 14386570
-0.00012087285 0.015682474 0.21900001 13005176
0.00090896629 0.015682474 0.21900001 12479602
0.0019388056 0.015682474 0.21900001 12153717
0.0029822004 0.015754083 0.22000001 12810627
0.0040167416 0.015754083 0.22000001 14916773
0.005074244 0.015825693 0.22100002 16773879
0.0061134882 0.015825693 0.22100002 16771306
0.0071850978 0.015897304 0.22200002 14522267
0.0082661118 0.015968911 0.223 13863308
0.0093147606 0.015968911 0.223 12486280
0.010409882 0.016040521 0.22400001 12224906
0.011463233 0.016040521 0.22400001 12287617
0.012516585 0.016040521 0.22400001 13339022
0.013630517 0.01611213 0.22500001 12813963
0.01468857 0.01611213 0.22500001 12353412
0.015746625 0.01611213 0.22500001 12353151
0.016804678 0.01611213 0.22500001 13140610
0.017862733 0.01611213 0.22500001 13139840
0.019004878 0.01618374 0.22600001 12549245
0.020067636 0.01618374 0.22600001 12617096
0.021130392 0.01618374 0.22600001 12290949
0.022193149 0.01618374 0.22600001 16776689
0.023255905 0.01618374 0.22600001 16771817
0.024426267 0.016255351 0.22700001 15512256
0.025493726 0.016255351 0.22700001 12154498
0.026561184 0.016255351 0.22700001 11626099
0.027628642 0.016255351 0.22700001 11629949
0.028696101 0.016255351 0.22700001 16441568
0.029763561 0.016255351 0.22700001 14338507
0.03083102 0.016255351 0.22700001 10649734
0.03189848 0.016255351 0.22700001 12485008
-0.01556846 0.016712314 0.21900001 4668997
-0.014538622 0.016712314 0.21900001 5785164
-0.013447098 0.016636001 0.21800001 7624023
-0.012421962 0.016636001 0.21800001 11303804
-0.011396824 0.016636001 0.21800001 11957108
-0.010371689 0.016636001 0.21800001 12942204
-0.0093465513 0.016636001 0.21800001 13400186
-0.0083214147 0.016636001 0.21800001 14912398
-0.0072962777 0.016636001 0.21800001 13002348
-0.0062711411 0.016636001 0.21800001 14252413
-0.0052460046 0.016636001 0.21800001 14253701
-0.0042208675 0.016636001 0.21800001 13070964
-0.0031957312 0.016636001 0.21800001 13138552
-0.0021705944 0.016636001 0.21800001 16765387
-0.001150712 0.016712314 0.21900001 16032156
-0.00012087285 0.016712314 0.21900001 11426139
0.00090896629 0.016712314 0.21900001 11623521
0.0019388056 0.016712314 0.21900001 12350326
0.0029822004 0.016788626 0.22000001 12745084
0.0040167416 0.016788626 0.22000001 13666704
0.005074244 0.016864939 0.22100002 16773877
0.0061134882 0.016864939 0.22100002 16774903
0.0071850978 0.016941249 0.22200002 16102330
0.0082661118 0.01701756 0.223 14455193
0.0093147606 0.01701756 0.223 13669272
0.010409882 0.017093873 0.22400001 12881040
0.011463233 0.017093873 0.22400001 14982818
0.012516585 0.017093873 0.22400001 14194072
0.013630517 0.017170185 0.22500001 16773620
0.01468857 0.017170185 0.22500001 16774645
0.015746625 0.017170185 0.22500001 16768738
0.016804678 0.017170185 0.22500001 14130337
0.017862733 0.017170185 0.22500001 16761293
0.019004878 0.017246498 0.22600001 16761042
0.020067636 0.017246498 0.22600001 14791613
0.021130392 0.017246498 0.22600001 16776697
0.022193149 0.017246498 0.22600001 16777211
0.023255905 0.017246498 0.22600001 16775164
0.024426267 0.017322809 0.22700001 16769012
0.025493726 0.017322809 0.22700001 16763363
0.026678195 0.017399121 0.22800002 15443383
0.027750354 0.017399121 0.22800002 14066858
0.028822517 0.017399121 0.22800002 16776695
0.029894678 0.017399121 0.22800002 16777209
0.030966841 0.017399121 0.22800002 14006973
0.032039002 0.017399121 0.22800002 15906498
0.033111162 0.017399121 0.22800002 16235459
0.034333248 0.017475434 0.22900002 15185078
0.035564739 0.017551744 0.23 15384517
0.036646307 0.017551744 0.23 10846866
0.037891909 0.017628057 0.23100001 8218487
-0.01556846 0.017742153 0.21900001 5322820
-0.014538622 0.017742153 0.21900001 6572883
-0.013508783 0.017742153 0.21900001 7491922
-0.012478944 0.017742153 0.21900001 11039601
-0.011396824 0.017661139 0.21800001 14523033
-0.010371689 0.017661139 0.21800001 13402755
-0.0093465513 0.017661139 0.21800001 12743542
-0.0083214147 0.017661139 0.21800001 14517386
-0.0072962777 0.017661139 0.21800001 13595001
-0.0062711411 0.017661139 0.21800001 13726587
-0.0052460046 0.017661139 0.21800001 12872048
-0.0042208675 0.017661139 0.21800001 11885407
-0.0031957312 0.017661139 0.21800001 11489879
-0.0021705944 0.017661139 0.21800001 12015453
-0.001150712 0.017742153 0.21900001 11096404
-0.00012087285 0.017742153 0.21900001 11360603
0.00090896629 0.017742153 0.21900001 11361119
0.0019388056 0.017742153 0.21900001 13600138
0.0029822004 0.017823167 0.22000001 12021109
0.0040349998 0.017904183 0.22100002 12415610
0.005074244 0.017904183 0.22100002 16759493
0.0061411508 0.017985197 0.22200002 16298942
0.0071850978 0.017985197 0.22200002 15375012
0.0082661118 0.018066211 0.223 15244709
0.0093147606 0.018066211 0.223 14458275
0.010409882 0.018147225 0.22400001 16497856
0.011463233 0.018147225 0.22400001 16495287
0.012516585 0.018147225 0.22400001 15314611
0.013630517 0.01822824 0.22500001 16775158
0.01468857 0.01822824 0.22500001 16776437
0.015746625 0.01822824 0.22500001 16773359
0.016804678 0.01822824 0.22500001 16766167
0.017862733 0.01822824 0.22500001 16769774
0.019004878 0.018309254 0.22600001 16037057
0.020067636 0.018309254 0.22600001 15254474
0.021130392 0.018309254 0.22600001 16777209
0.022193149 0.018309254 0.22600001 16711675
0.023358807 0.018390268 0.22700001 16775167
0.024426267 0.018390268 0.22700001 13938113
0.025606032 0.018471284 0.22800002 16766190
0.026678195 0.018471284 0.22800002 14987211
0.027872067 0.018552298 0.22900002 16772342
0.028948931 0.018552298 0.22900002 16777211
0.030025795 0.018552298 0.22900002 16777209
0.031102659 0.018552298 0.22900002 14399419
0.032179523 0.018552298 0.22900002 16762578
0.033256389 0.018552298 0.22900002 16626616
0.034483176 0.018633312 0.23 16758205
0.035719369 0.018714326 0.23100001 14330546
0.036805641 0.018714326 0.23100001 16775418
0.037891909 0.018714326 0.23100001 16775676
0.038978178 0.018714326 0.23100001 13615297
-0.015639549 0.018857708 0.22000001 10322052
-0.014671395 0.018943425 0.22100002 11901847
-0.013570466 0.018857708 0.22000001 8281690
-0.012478944 0.018771991 0.21900001 9724257
-0.011449104 0.018771991 0.21900001 14457755
-0.010419265 0.018771991 0.21900001 14193300
-0.0093465513 0.018686274 0.21800001 15046299
-0.0083595868 0.018771991 0.21900001 16755634
-0.0073297471 0.018771991 0.21900001 16758716
-0.0062999078 0.018771991 0.21900001 16558250
-0.0052700685 0.018771991 0.21900001 13926019
-0.0042402293 0.018771991 0.21900001 11821672
-0.0032103905 0.018771991 0.21900001 16760777
-0.0021805512 0.018771991 0.21900001 16296879
-0.001150712 0.018771991 0.21900001 12676981
-0.00012087285 0.018771991 0.21900001 11492705
0.00090896629 0.018771991 0.21900001 11757164
0.0019388056 0.018771991 0.21900001 13667224
0.0029822004 0.018857708 0.22000001 11890043
0.0040349998 0.018943425 0.22100002 12020084
0.005074244 0.018943425 0.22100002 12743805
0.0061411508 0.019029142 0.22200002 12612219
0.0071850978 0.019029142 0.22200002 14322837
0.0082661118 0.019114858 0.223 14652831
0.0093147606 0.019114858 0.223 15114152
0.010409882 0.019200575 0.22400001 13665936
0.011463233 0.019200575 0.22400001 13863061
0.012516585 0.019200575 0.22400001 16768488
0.013630517 0.019286292 0.22500001 16775161
0.01468857 0.019286292 0.22500001 16775417
0.015746625 0.019286292 0.22500001 16765399
0.016804678 0.019286292 0.22500001 15444146
0.017862733 0.019286292 0.22500001 13930394
0.019004878 0.019372009 0.22600001 12483461
0.020067636 0.019372009 0.22600001 16702944
0.021130392 0.019372009 0.22600001 16777207
0.022193149 0.019372009 0.22600001 16775934
0.023358807 0.019457726 0.22700001 16570855
0.024426267 0.019457726 0.22700001 14921666
0.025606032 0.019543443 0.22800002 16367829
0.026678195 0.019543443 0.22800002 16039632
0.027872067 0.01962916 0.22900002 16770026
0.028948931 0.01962916 0.22900002 16773874
0.030025795 0.01962916 0.22900002 16774129
0.031238478 0.019714877 0.23 14981019
0.032320045 0.019714877 0.23 15436178
0.033401612 0.019714877 0.23 15172488
0.0346331 0.019800592 0.23100001 15570076
0.035719369 0.019800592 0.23100001 14727353
0.036805641 0.019800592 0.23100001 16777209
0.037891909 0.019800592 0.23100001 16711675
0.039146915 0.019886309 0.23200001 16775926
0.040237885 0.019886309 0.23200001 13940919
0.041328859 0.019886309 0.23200001 13542309
-0.015781729 0.02007309 0.22200002 6637896
-0.014804166 0.020163508 0.223 7163209
-0.01363215 0.01998267 0.22100002 10450290
-0.012535925 0.019892251 0.22000001 12684426
-0.011501383 0.019892251 0.22000001 12024184
-0.010419265 0.019801831 0.21900001 14128279
-0.0093894256 0.019801831 0.21900001 14652826
-0.0083595868 0.019801831 0.21900001 15045529
-0.0073297471 0.019801831 0.21900001 16689586
-0.0062999078 0.019801831 0.21900001 16758460
-0.0052700685 0.019801831 0.21900001 16757175
-0.0042402293 0.019801831 0.21900001 13862288
-0.0032103905 0.019801831 0.21900001 16770806
-0.0021805512 0.019801831 0.21900001 16772856
-0.001150712 0.019801831 0.21900001 13272464
-0.00012087285 0.019801831 0.21900001 13665161
0.00090896629 0.019801831 0.21900001 12547455
0.0019476586 0.019892251 0.22000001 14588074
0.0029822004 0.019892251 0.22000001 11429494
0.0040349998 0.01998267 0.22100002 16760778
0.005074244 0.01998267 0.22100002 16761804
0.0061411508 0.02007309 0.22200002 12417668
0.0071850978 0.02007309 0.22200002 12483463
0.0082661118 0.020163508 0.223 13600659
0.0093147606 0.020163508 0.223 13271176
0.010409882 0.020253927 0.22400001 12810625
0.011463233 0.020253927 0.22400001 13007752
0.012516585 0.020253927 0.22400001 12941963
0.013630517 0.020344347 0.22500001 14391210
0.01468857 0.020344347 0.22500001 16760015
0.015746625 0.020344347 0.22500001 11166320
0.016804678 0.020344347 0.22500001 11034732
0.017862733 0.020344347 0.22500001 11627123
0.019004878 0.020434767 0.22600001 11233133
0.020067636 0.020434767 0.22600001 15907781
0.021130392 0.020434767 0.22600001 16110052
0.022291349 0.020525185 0.22700001 16770036
0.023358807 0.020525185 0.22700001 9063258
0.024426267 0.020525185 0.22700001 9589343
0.025606032 0.020615606 0.22800002 10970994
0.026678195 0.020615606 0.22800002 11826301
0.027872067 0.020706024 0.22900002 12681092
0.029075345 0.020796442 0.23 12876413
0.03015691 0.020796442 0.23 13992066
0.031238478 0.020796442 0.23 15109262
0.032320045 0.020796442 0.23 16292250
0.033546835 0.020886863 0.23100001 16554395
0.0346331 0.020886863 0.23100001 15636121
0.035719369 0.020886863 0.23100001 16772587
0.036805641 0.020886863 0.23100001 16776949
0.037891909 0.020886863 0.23100001 16776953
0.039146915 0.020977281 0.23200001 16771560
0.040237885 0.020977281 0.23200001 16568528
0.041328859 0.020977281 0.23200001 16768994
0.042419825 0.020977281 0.23200001 16764113
-0.015994994 0.021402402 0.22500001 7229261
-0.014936939 0.021402402 0.22500001 7820115
-0.013755518 0.021212157 0.223 8608088
-0.012649888 0.021117037 0.22200002 9132887
-0.011553662 0.021021914 0.22100002 12748932
-0.010466842 0.020926792 0.22000001 13208456
-0.0094323 0.020926792 0.22000001 13009026
-0.008397758 0.020926792 0.22000001 14981791
-0.0073632165 0.020926792 0.22000001 16759488
-0.0063286745 0.020926792 0.22000001 16757176
-0.005294133 0.020926792 0.22000001 15967403
-0.0042595915 0.020926792 0.22000001 15507111
-0.0032250497 0.020926792 0.22000001 16771827
-0.0021905082 0.020926792 0.22000001 16773620
-0.0011559664 0.020926792 0.22000001 15380150
-0.00012142478 0.020926792 0.22000001 15046814
0.00091311685 0.020926792 0.22000001 14456474
0.0019476586 0.020926792 0.22000001 15904951
0.0029822004 0.020926792 0.22000001 14455198
0.0040349998 0.021021914 0.22100002 16767200
0.005074244 0.021021914 0.22100002 16767454
0.0061411508 0.021117037 0.22200002 16764375
0.0071850978 0.021117037 0.22200002 13274774
0.0082661118 0.021212157 0.223 15050410
0.0093147606 0.021212157 0.223 15179425
0.010409882 0.021307278 0.22400001 15375266
0.011463233 0.021307278 0.22400001 14718624
0.012516585 0.021307278 0.22400001 16764635
0.013630517 0.021402402 0.22500001 13207704
0.01468857 0.021402402 0.22500001 12416387
0.015746625 0.021402402 0.22500001 12942213
0.016804678 0.021402402 0.22500001 13270919
0.017862733 0.021402402 0.22500001 12481403
0.019004878 0.021497523 0.22600001 11889523
0.020067636 0.021497523 0.22600001 8140612
0.021130392 0.021497523 0.22600001 6035497
0.022291349 0.021592645 0.22700001 5837089
0.023358807 0.021592645 0.22700001 5443612
0.024426267 0.021592645 0.22700001 5706782
0.025606032 0.021687767 0.22800002 5839392
0.026678195 0.021687767 0.22800002 5510679
0.027872067 0.021782888 0.22900002 5708056
0.029075345 0.02187801 0.23 5772818
0.03015691 0.02187801 0.23 6363158
0.031374298 0.021973131 0.23100001 7348516
0.032460567 0.021973131 0.23100001 9386559
0.033546835 0.021973131 0.23100001 11425885
0.0346331 0.021973131 0.23100001 13992069
0.035719369 0.021973131 0.23100001 13731979
0.036805641 0.021973131 0.23100001 16772850
0.037891909 0.021973131 0.23100001 16767706
0.039146915 0.022068253 0.23200001 15642549
0.040237885 0.022068253 0.23200001 16297654
0.041328859 0.022068253 0.23200001 16758459
0.042419825 0.022068253 0.23200001 16561850
0.043510798 0.022068253 0.23200001 16367037
-0.015136098 0.022759929 0.22800002 7426381
-0.013878886 0.022460455 0.22500001 8542293
-0.01276385 0.02236063 0.22400001 9528675
-0.011605942 0.022160983 0.22200002 11501435
-0.010514419 0.02206116 0.22100002 11565945
-0.0094751734 0.02206116 0.22100002 12616836
-0.0084359301 0.02206116 0.22100002 12877440
-0.0073966854 0.02206116 0.22100002 13730439
-0.0063574412 0.02206116 0.22100002 14584978
-0.0053181974 0.02206116 0.22100002 15373724
-0.0042789532 0.02206116 0.22100002 16557741
-0.0032397092 0.02206116 0.22100002 15967149
-0.002200465 0.02206116 0.22100002 16763087
-0.0011612208 0.02206116 0.22100002 16758977
-0.00012197671 0.02206116 0.22100002 16495030
0.00091726735 0.02206116 0.22100002 14391451
0.0019565115 0.02206116 0.22100002 15970229
0.0029957558 0.02206116 0.22100002 16495287
0.0040349998 0.02206116 0.22100002 16760772
0.0050972044 0.022160983 0.22200002 16768735
0.0061411508 0.022160983 0.22200002 16772335
0.0071850978 0.022160983 0.22200002 13407384
0.0082661118 0.022260806 0.223 15049642
0.0093147606 0.022260806 0.223 16231856
0.010409882 0.02236063 0.22400001 15638436
0.011463233 0.02236063 0.22400001 15046560
0.012572463 0.022460455 0.22500001 16767205
0.013630517 0.022460455 0.22500001 16771053
0.01468857 0.022460455 0.22500001 16432063
0.015746625 0.022460455 0.22500001 15770024
0.016804678 0.022460455 0.22500001 15703459
0.017862733 0.022460455 0.22500001 14652056
0.019004878 0.02256028 0.22600001 12876420
0.020067636 0.02256028 0.22600001 15906498
0.021130392 0.02256028 0.22600001 12880802
0.022291349 0.022660105 0.22700001 8272978
0.023358807 0.022660105 0.22700001 11758455
0.024426267 0.022660105 0.22700001 6232095
0.025606032 0.022759929 0.22800002 6428958
0.026678195 0.022759929 0.22800002 5442833
0.027872067 0.022859754 0.22900002 5379093
0.029075345 0.022959577 0.23 5445395
0.03015691 0.022959577 0.23 5314323
0.031374298 0.0230594 0.23100001 5511188
0.032460567 0.0230594 0.23100001 5575698
0.033546835 0.0230594 0.23100001 5968403
0.0346331 0.0230594 0.23100001 6362136
0.035719369 0.0230594 0.23100001 7809069
0.036805641 0.0230594 0.23100001 11230820
0.037891909 0.0230594 0.23100001 13599114
0.039146915 0.023159225 0.23200001 16760265
0.040237885 0.023159225 0.23200001 15174035
0.041328859 0.023159225 0.23200001 15370385
0.042419825 0.023159225 0.23200001 16755374
0.043510798 0.023159225 0.23200001 16229285
0.044601768 0.023159225 0.23200001 16761793
-0.015268871 0.02404114 0.23 7425609
-0.014002254 0.023727562 0.22700001 8542547
-0.012877814 0.023623034 0.22600001 9857894
-0.011710498 0.02341398 0.22400001 10317675
-0.010609571 0.023309454 0.223 10909812
-0.0095180478 0.023204928 0.22200002 11236213
-0.0084741022 0.023204928 0.22200002 13076620
-0.0074301548 0.023204928 0.22200002 13205637
-0.0063862083 0.023204928 0.22200002 13862540
-0.0053422614 0.023204928 0.22200002 14059404
-0.0042983149 0.023204928 0.22200002 14584978
-0.0032543684 0.023204928 0.22200002 14979484
-0.002210422 0.023204928 0.22200002 15046301
-0.0011664752 0.023204928 0.22200002 15507365
-0.00012252865 0.023204928 0.22200002 15574701
0.0009214179 0.023204928 0.22200002 13996954
0.0019653647 0.023204928 0.22200002 15838897
0.0030093112 0.023204928 0.22200002 15770022
0.0040532579 0.023204928 0.22200002 15571103
0.0051201642 0.023309454 0.223 15508390
0.0061688134 0.023309454 0.223 14985644
0.0072174626 0.023309454 0.223 13735577
0.0082661118 0.023309454 0.223 14391451
0.0093147606 0.023309454 0.223 15704744
0.010409882 0.02341398 0.22400001 16033194
0.011463233 0.02341398 0.22400001 16756404
0.012572463 0.023518508 0.22500001 15573928
0.013630517 0.023518508 0.22500001 16768741
0.01468857 0.023518508 0.22500001 16100018
0.015746625 0.023518508 0.22500001 15571873
0.016804678 0.023518508 0.22500001 15769250
0.017862733 0.023518508 0.22500001 16427182
0.019004878 0.023623034 0.22600001 15112353
0.020067636 0.023623034 0.22600001 16770034
0.021130392 0.023623034 0.22600001 16772089
0.022291349 0.023727562 0.22700001 12482952
0.023358807 0.023727562 0.22700001 13928081
0.024426267 0.023727562 0.22700001 13928079
0.025606032 0.023832088 0.22800002 13797520
0.026678195 0.023832088 0.22800002 13275026
0.027872067 0.023936616 0.22900002 9591649
0.029075345 0.02404114 0.23 4985880
0.03015691 0.02404114 0.23 5182739
0.031374298 0.024145668 0.23100001 5248784
0.032460567 0.024145668 0.23100001 5314577
0.033546835 0.024145668 0.23100001 5445649
0.0346331 0.024145668 0.23100001 5707538
0.035719369 0.024145668 0.23100001 6231829
0.036805641 0.024145668 0.23100001 6558230
0.037891909 0.024145668 0.23100001 7478309
0.039146915 0.024250194 0.23200001 10700113
0.040237885 0.024250194 0.23200001 12607081
0.041328859 0.024250194 0.23200001 13659251
0.042419825 0.024250194 0.23200001 13594485
0.043510798 0.024250194 0.23200001 14122117
0.044601768 0.024250194 0.23200001 15704490
0.045692742 0.024250194 0.23200001 8280666
-0.015335257 0.025231937 0.23100001 7556168
-0.014125622 0.02501348 0.22900002 9332061
-0.012991777 0.024904251 0.22800002 9726819
-0.011815057 0.024685793 0.22600001 10318445
-0.010704724 0.024576563 0.22500001 11238263
-0.0096037956 0.024467332 0.22400001 11500922
-0.0085122725 0.024358103 0.223 12091776
-0.0074636233 0.024358103 0.223 12615553
-0.0064149746 0.024358103 0.223 14587288
-0.0053663254 0.024358103 0.223 15309984
-0.0043176766 0.024358103 0.223 13928331
-0.0032690277 0.024358103 0.223 13863310
-0.0022203785 0.024358103 0.223 14915744
-0.0011717295 0.024358103 0.223 14324634
-0.00012308056 0.024358103 0.223 14722220
0.0009255684 0.024358103 0.223 13603479
0.0019742176 0.024358103 0.223 14193302
0.0030228666 0.024358103 0.223 14914713
0.0040715155 0.024358103 0.223 15506080
0.0051431246 0.024467332 0.22400001 15640748
0.0061964765 0.024467332 0.22400001 12616584
0.0072498284 0.024467332 0.22400001 13471380
0.0083031794 0.024467332 0.22400001 14718365
0.0093565313 0.024467332 0.22400001 15179170
0.010409882 0.024467332 0.22400001 15375266
0.011463233 0.024467332 0.22400001 16426155
0.012572463 0.024576563 0.22500001 16030112
0.013630517 0.024576563 0.22500001 15964834
0.01468857 0.024576563 0.22500001 16754864
0.015746625 0.024576563 0.22500001 15965604
0.016804678 0.024576563 0.22500001 16755375
0.017862733 0.024576563 0.22500001 16757431
0.019004878 0.024685793 0.22600001 15111324
0.020067636 0.024685793 0.22600001 16761295
0.021130392 0.024685793 0.22600001 16694217
0.022291349 0.024795022 0.22700001 16755900
0.023358807 0.024795022 0.22700001 15043480
0.024426267 0.024795022 0.22700001 16162988
0.025606032 0.024904251 0.22800002 16765401
0.026678195 0.024904251 0.22800002 16775415
0.027872067 0.02501348 0.22900002 16775925
0.029075345 0.025122708 0.23 15778758
0.03015691 0.025122708 0.23 4984594
0.031374298 0.025231937 0.23100001 5115667
0.032460567 0.025231937 0.23100001 5248020
0.033546835 0.025231937 0.23100001 5182227
0.0346331 0.025231937 0.23100001 5444112
0.035719369 0.025231937 0.23100001 5572872
0.036805641 0.025231937 0.23100001 6557457
0.037891909 0.025231937 0.23100001 8924470
0.039146915 0.025341166 0.23200001 9713214
0.040237885 0.025341166 0.23200001 11292500
0.041328859 0.025341166 0.23200001 12607590
0.042419825 0.025341166 0.23200001 13265520
0.043510798 0.025341166 0.23200001 13266036
0.044601768 0.025341166 0.23200001 14980508
-0.01546803 0.02654607 0.23300001 7622988
-0.01424899 0.026318206 0.23100001 8609110
-0.013105739 0.026204275 0.23 9398626
-0.011919615 0.025976412 0.22800002 10516337
-0.010799877 0.025862481 0.22700001 10844019
-0.0096895443 0.025748549 0.22600001 12026496
-0.0085886167 0.025634617 0.22500001 12025983
-0.0074970927 0.025520684 0.22400001 13339276
-0.0064437413 0.025520684 0.22400001 13601165
-0.0053903898 0.025520684 0.22400001 15179425
-0.0043370384 0.025520684 0.22400001 15179168
-0.0032836869 0.025520684 0.22400001 14653083
-0.0022303355 0.025520684 0.22400001 14128025
-0.0011769839 0.025520684 0.22400001 13340821
-0.0001236325 0.025520684 0.22400001 12487311
0.00092971895 0.025520684 0.22400001 13603993
0.0019830705 0.025520684 0.22400001 13733521
0.003036422 0.025520684 0.22400001 14586261
0.0040897732 0.025520684 0.22400001 15375777
0.0051660854 0.025634617 0.22500001 15508138
0.0062241391 0.025634617 0.22500001 14325917
0.0072821938 0.025634617 0.22500001 14522013
0.008340247 0.025634617 0.22500001 14850208
0.0093983011 0.025634617 0.22500001 14915744
0.010456355 0.025634617 0.22500001 15179170
0.011514409 0.025634617 0.22500001 15966631
0.012572463 0.025634617 0.22500001 16097188
0.013630517 0.025634617 0.22500001 15899809
0.01468857 0.025634617 0.22500001 15965602
0.015746625 0.025634617 0.22500001 15043732
0.016804678 0.025634617 0.22500001 15437975
0.017942123 0.025748549 0.22600001 14648972
0.019004878 0.025748549 0.22600001 15109523
0.020067636 0.025748549 0.22600001 16758720
0.021130392 0.025748549 0.22600001 16360110
0.022291349 0.025862481 0.22700001 15635358
0.023358807 0.025862481 0.22700001 14779279
0.024426267 0.025862481 0.22700001 16098217
0.025606032 0.025976412 0.22800002 16771307
0.026678195 0.025976412 0.22800002 16116713
0.027872067 0.026090344 0.22900002 16776953
0.029075345 0.026204275 0.23 16773879
0.03015691 0.026204275 0.23 11827332
0.031374298 0.026318206 0.23100001 12417407
0.032460567 0.026318206 0.23100001 12745602
0.033546835 0.026318206 0.23100001 11956340
0.0346331 0.026318206 0.23100001 11692139
0.035719369 0.026318206 0.23100001 12085866
0.036805641 0.026318206 0.23100001 13531772
0.037891909 0.026318206 0.23100001 16160928
0.039146915 0.026432138 0.23200001 14121599
0.040237885 0.026432138 0.23200001 14582150
0.041328859 0.026432138 0.23200001 13134704
0.042419825 0.026432138 0.23200001 14055552
0.043510798 0.026432138 0.23200001 15635867
0.044601768 0.026432138 0.23200001 16035506
-0.015667191 0.027997646 0.23600002 7754576
-0.014434041 0.027760379 0.23400001 8477531
-0.013219702 0.02752311 0.23200001 9135715
-0.012024173 0.02728584 0.23 10253165
-0.010895031 0.027167208 0.22900002 10713203
-0.0097752921 0.027048575 0.22800002 11237496
-0.00866496 0.026929939 0.22700001 11697018
-0.0075640311 0.026811305 0.22600001 13010311
-0.006472508 0.026692672 0.22500001 13141384
-0.0054144538 0.026692672 0.22500001 14259095
-0.0043564001 0.026692672 0.22500001 15048611
-0.0032983462 0.026692672 0.22500001 14654623
-0.0022402923 0.026692672 0.22500001 14325665
-0.0011822383 0.026692672 0.22500001 12155779
-0.00012418443 0.026692672 0.22500001 13669786
0.00093386945 0.026692672 0.22500001 13339794
0.0019919234 0.026692672 0.22500001 13602194
0.0030499776 0.026692672 0.22500001 14323864
0.0041080313 0.026692672 0.22500001 13928849
0.0051890458 0.026811305 0.22600001 14652572
0.0062518022 0.026811305 0.22600001 14849951
0.0073145591 0.026811305 0.22600001 14916001
0.0083773145 0.026811305 0.22600001 15047587
0.0094400719 0.026811305 0.22600001 15113377
0.010502828 0.026811305 0.22600001 14850205
0.011565584 0.026811305 0.22600001 14718619
0.012628341 0.026811305 0.22600001 14849435
0.013691097 0.026811305 0.22600001 14520470
0.014753853 0.026811305 0.22600001 14584980
0.01581661 0.026811305 0.22600001 14518158
0.016879367 0.026811305 0.22600001 14583951
0.017942123 0.026811305 0.22600001 14715537
0.019004878 0.026811305 0.22600001 14781587
0.020067636 0.026811305 0.22600001 15768484
0.021130392 0.026811305 0.22600001 16031656
0.022291349 0.026929939 0.22700001 16293286
0.023358807 0.026929939 0.22700001 14845070
0.024426267 0.026929939 0.22700001 15964321
0.025606032 0.027048575 0.22800002 15968691
0.026678195 0.027048575 0.22800002 16774900
0.027872067 0.027167208 0.22900002 16776697
0.029075345 0.02728584 0.23 16773371
0.03015691 0.02728584 0.23 16761554
0.031374298 0.027404476 0.23100001 16758981
0.032460567 0.027404476 0.23100001 15902123
0.033546835 0.027404476 0.23100001 14651543
0.0346331 0.027404476 0.23100001 15378092
0.035719369 0.027404476 0.23100001 16768990
0.036805641 0.027404476 0.23100001 16765653
0.037891909 0.027404476 0.23100001 16763602
0.039146915 0.02752311 0.23200001 15702432
0.040237885 0.02752311 0.23200001 15833246
0.041328859 0.02752311 0.23200001 16359590
0.042419825 0.02752311 0.23200001 16360367
0.043510798 0.02752311 0.23200001 16761289
0.044601768 0.02752311 0.23200001 16763085
-0.015866349 0.029477436 0.23900001 8150102
-0.014557409 0.029107427 0.23600002 8214873
-0.013333665 0.028860753 0.23400001 9003877
-0.012128731 0.02861408 0.23200001 10056302
-0.010990184 0.028490743 0.23100001 10253681
-0.0098610399 0.028367406 0.23 10777972
-0.0087413033 0.028244071 0.22900002 12092035
-0.0076309699 0.028120734 0.22800002 13142926
-0.0065300413 0.027997397 0.22700001 12945801
-0.0054385182 0.02787406 0.22600001 13668241
-0.0043757618 0.02787406 0.22600001 13996439
-0.0033130057 0.02787406 0.22600001 13996439
-0.0022502493 0.02787406 0.22600001 13272464
-0.0011874927 0.02787406 0.22600001 12878219
-0.00012473637 0.02787406 0.22600001 12483715
0.00093802001 0.02787406 0.22600001 12681094
0.0020007766 0.02787406 0.22600001 13470349
0.003063533 0.02787406 0.22600001 13731981
0.0041262894 0.02787406 0.22600001 14192275
0.0052120062 0.027997397 0.22700001 15112353
0.0062794648 0.027997397 0.22700001 15441318
0.0073469244 0.027997397 0.22700001 15179173
0.008414383 0.027997397 0.22700001 14916255
0.0094818417 0.027997397 0.22700001 15376806
0.0105493 0.027997397 0.22700001 15573931
0.011616759 0.027997397 0.22700001 13798290
0.012684219 0.027997397 0.22700001 13734298
0.013751677 0.027997397 0.22700001 14062234
0.014819135 0.027997397 0.22700001 13929106
0.015886595 0.027997397 0.22700001 14717336
0.016954053 0.027997397 0.22700001 14717336
0.018021513 0.027997397 0.22700001 15375266
0.01908897 0.027997397 0.22700001 14520470
0.02015643 0.027997397 0.22700001 14783642
0.02122389 0.027997397 0.22700001 15242910
0.022291349 0.027997397 0.22700001 16228774
0.023461709 0.028120734 0.22800002 16359077
0.024533872 0.028120734 0.22800002 16425383
0.025606032 0.028120734 0.22800002 16294574
0.026678195 0.028120734 0.22800002 15576502
0.027872067 0.028244071 0.22900002 16765401
0.029075345 0.028367406 0.23 16763876
0.03015691 0.028367406 0.23 14786748
0.031374298 0.028490743 0.23100001 16626889
0.032460567 0.028490743 0.23100001 16231352
0.033546835 0.028490743 0.23100001 16165818
0.0346331 0.028490743 0.23100001 16771567
0.035719369 0.028490743 0.23100001 16775670
0.036805641 0.028490743 0.23100001 16776187
0.037891909 0.028490743 0.23100001 15907014
0.038978178 0.028490743 0.23100001 16626110
0.040237885 0.02861408 0.23200001 16757692
0.041328859 0.02861408 0.23200001 16758205
0.042419825 0.02861408 0.23200001 16758975
0.043510798 0.02861408 0.23200001 16365754
0.044601768 0.02861408 0.23200001 16565961
0.045692742 0.02861408 0.23200001 6174780
0.046783712 0.02861408 0.23200001 4797489
-0.015932735 0.030729361 0.24000001 7689551
-0.014680777 0.030473283 0.23800001 9465710
-0.013447629 0.030217206 0.23600002 9596526
-0.012233289 0.029961128 0.23400001 9859438
-0.011085337 0.02983309 0.23300001 10056815
-0.0099467887 0.029705049 0.23200001 10581363
-0.0088176457 0.029577011 0.23100001 11698560
-0.0076979077 0.029448971 0.23 12224391
-0.0065875752 0.029320933 0.22900002 12684172
-0.0054866467 0.029192895 0.22800002 13011340
-0.0043951236 0.029064855 0.22700001 13208206
-0.0033276649 0.029064855 0.22700001 13470608
-0.002260206 0.029064855 0.22700001 13733521
-0.0011927471 0.029064855 0.22700001 13404302
-0.00012528829 0.029064855 0.22700001 13272718
0.00094217056 0.029064855 0.22700001 14916001
0.0020096295 0.029064855 0.22700001 15771310
0.0030770884 0.029064855 0.22700001 15113377
0.004144547 0.029064855 0.22700001 15113377
0.0052349665 0.029192895 0.22800002 14651543
0.0063071279 0.029192895 0.22800002 14914715
0.0073792897 0.029192895 0.22800002 15771307
0.0084514506 0.029192895 0.22800002 14784415
0.0095236124 0.029192895 0.22800002 14588578
0.010595773 0.029192895 0.22800002 12548995
0.011667934 0.029192895 0.22800002 13075598
0.012740096 0.029192895 0.22800002 13341341
0.013812257 0.029192895 0.22800002 14261155
0.014884418 0.029192895 0.22800002 14455452
0.015956581 0.029192895 0.22800002 13863056
0.017028742 0.029192895 0.22800002 15836076
0.018100904 0.029192895 0.22800002 15113377
0.019173063 0.029192895 0.22800002 15113377
0.020245226 0.029192895 0.22800002 14718876
0.021317387 0.029192895 0.22800002 14981791
0.02238955 0.029192895 0.22800002 16427180
0.023461709 0.029192895 0.22800002 16360617
0.024533872 0.029192895 0.22800002 16228774
0.025606032 0.029192895 0.22800002 16689586
0.026795205 0.029320933 0.22900002 16757695
0.027872067 0.029320933 0.22900002 16626621
0.029075345 0.029448971 0.23 16231609
0.03015691 0.029448971 0.23 16759510
0.031374298 0.029577011 0.23100001 16762334
0.032460567 0.029577011 0.23100001 16766439
0.033546835 0.029577011 0.23100001 16765405
0.0346331 0.029577011 0.23100001 16772340
0.035719369 0.029577011 0.23100001 16776185
0.036805641 0.029577011 0.23100001 16776185
0.037891909 0.029577011 0.23100001 14724023
0.038978178 0.029577011 0.23100001 16692160
0.040237885 0.029705049 0.23200001 16494776
0.041328859 0.029705049 0.23200001 16758973
0.042419825 0.029705049 0.23200001 16763854
0.043510798 0.029705049 0.23200001 15648718
0.044601768 0.029705049 0.23200001 12300733
0.045692742 0.029705049 0.23200001 11316918
-0.016065508 0.032123435 0.24200001 8085592
-0.014742461 0.031725213 0.23900001 9071465
-0.013561592 0.03159247 0.23800001 9400684
-0.012337848 0.031326987 0.23600002 9662571
-0.01118049 0.031194247 0.23500001 9794157
-0.010032536 0.031061504 0.23400001 10122095
-0.008893989 0.030928763 0.23300001 10187118
-0.0077648461 0.030796021 0.23200001 10843251
-0.0066451081 0.03066328 0.23100001 11434107
-0.0055347751 0.030530538 0.23 13012624
-0.0044338475 0.030397799 0.22900002 13472405
-0.0033569837 0.030397799 0.22900002 13471891
-0.0022801198 0.030397799 0.22900002 13142926
-0.001203256 0.030397799 0.22900002 13602194
-0.00012639216 0.030397799 0.22900002 13667474
0.00095047161 0.030397799 0.22900002 14785185
0.0020273356 0.030397799 0.22900002 15179173
0.0031041994 0.030397799 0.22900002 15508138
0.0041810633 0.030397799 0.22900002 14718876
0.0052579269 0.030397799 0.22900002 14389909
0.006334791 0.030397799 0.22900002 14060687
0.007411655 0.030397799 0.22900002 14389909
0.0084885182 0.030397799 0.22900002 13995153
0.0095653832 0.030397799 0.22900002 13141130
0.010642246 0.030397799 0.22900002 12746372
0.011719109 0.030397799 0.22900002 12944012
0.012795974 0.030397799 0.22900002 13605024
0.013872838 0.030397799 0.22900002 14459050
0.014949701 0.030397799 0.22900002 13600913
0.016026566 0.030397799 0.22900002 13271948
0.01710343 0.030397799 0.22900002 13665936
0.018180294 0.030397799 0.22900002 15376554
0.019257156 0.030397799 0.22900002 15113380
0.02033402 0.030397799 0.22900002 16100275
0.021410884 0.030397799 0.22900002 14652826
0.022487748 0.030397799 0.22900002 15638434
0.023564611 0.030397799 0.22900002 15440285
0.024641477 0.030397799 0.22900002 14848152
0.025718341 0.030397799 0.22900002 14388119
0.026912212 0.030530538 0.23 14190738
0.027993778 0.030530538 0.23 15440805
0.029075345 0.030530538 0.23 16492977
0.03015691 0.030530538 0.23 15835563
0.031374298 0.03066328 0.23100001 15178414
0.032460567 0.03066328 0.23100001 15968957
0.033546835 0.03066328 0.23100001 14454941
0.0346331 0.03066328 0.23100001 14915749
0.035719369 0.03066328 0.23100001 15445943
0.036805641 0.03066328 0.23100001 16768230
0.037891909 0.03066328 0.23100001 14851750
0.038978178 0.03066328 0.23100001 16167862
0.040064447 0.03066328 0.23100001 16300731
0.041150715 0.03066328 0.23100001 11303550
0.042419825 0.030796021 0.23200001 5386296
0.043510798 0.030796021 0.23200001 4206395
0.044601768 0.030796021 0.23200001 3354938
0.045692742 0.030796021 0.23200001 3355965
-0.014865829 0.033123989 0.24100001 8612197
-0.013675555 0.032986544 0.24000001 9006955
-0.012442404 0.032711655 0.23800001 9005413
-0.011275643 0.032574214 0.23700002 8938850
-0.010118285 0.032436769 0.23600002 9793645
-0.0089703333 0.032299325 0.23500001 10845048
-0.0078317849 0.03216188 0.23400001 11303802
-0.0067026415 0.032024436 0.23300001 11500668
-0.0055829035 0.031886991 0.23200001 12421000
-0.0044725705 0.03174955 0.23100001 12683659
-0.0033863022 0.03174955 0.23100001 12353926
-0.0022900766 0.031612106 0.23 13537171
-0.0012085102 0.031612106 0.23 14062486
-0.00012694408 0.031612106 0.23 13798544
0.00095462211 0.031612106 0.23 13732497
0.0020361885 0.031612106 0.23 13930646
0.0031177548 0.031612106 0.23 12944264
0.0041993209 0.031612106 0.23 13667989
0.0052808868 0.031612106 0.23 13405585
0.0063624531 0.031612106 0.23 13207436
0.0074440199 0.031612106 0.23 13665934
0.0085255858 0.031612106 0.23 14455704
0.0096071521 0.031612106 0.23 13403786
0.010642246 0.031474661 0.22900002 13272716
0.011770284 0.031612106 0.23 12944266
0.012851851 0.031612106 0.23 13473436
0.013872838 0.031474661 0.22900002 13998499
0.015014983 0.031612106 0.23 13074315
0.016096549 0.031612106 0.23 13271948
0.017178116 0.031612106 0.23 13470097
0.018259682 0.031612106 0.23 13075339
0.019341247 0.031612106 0.23 13995671
0.020422814 0.031612106 0.23 14127257
0.021504382 0.031612106 0.23 13929106
0.022585947 0.031612106 0.23 15046560
0.023667512 0.031612106 0.23 15309219
0.02474908 0.031612106 0.23 14651289
0.025830645 0.031612106 0.23 14190738
0.026912212 0.031612106 0.23 14388117
0.027993778 0.031612106 0.23 14190738
0.029075345 0.031612106 0.23 13664394
0.030288028 0.03174955 0.23100001 14256531
0.031374298 0.03174955 0.23100001 15112353
0.032460567 0.03174955 0.23100001 14783390
0.033546835 0.03174955 0.23100001 14586011
0.0346331 0.03174955 0.23100001 15113125
0.035719369 0.03174955 0.23100001 15113382
0.036805641 0.03174955 0.23100001 14128027
0.037891909 0.03174955 0.23100001 14263206
0.038978178 0.03174955 0.23100001 12752797
0.040064447 0.03174955 0.23100001 6440527
0.041150715 0.03174955 0.23100001 4206647
0.04223698 0.03174955 0.23100001 4077628
0.043323252 0.03174955 0.23100001 3684153
-0.014989197 0.034541577 0.24300002 7558998
-0.013789518 0.034399427 0.24200001 9137260
-0.012546963 0.034115136 0.24000001 8610914
-0.011370796 0.03397299 0.23900001 8676448
-0.010204033 0.033830844 0.23800001 9135200
-0.0090466766 0.033688698 0.23700002 9595751
-0.0078987228 0.033546552 0.23600002 10121327
-0.0067601753 0.033404406 0.23500001 10909560
-0.0056310324 0.033262257 0.23400001 12026244
-0.0045112944 0.033120111 0.23300001 13013139
-0.0034009614 0.032977965 0.23200001 12025731
-0.0023099903 0.032977965 0.23200001 12748684
-0.0012190191 0.032977965 0.23200001 12944264
-0.00012804795 0.032977965 0.23200001 12944005
0.00095877261 0.032835819 0.23100001 12878725
0.0020450414 0.032835819 0.23100001 12945034
0.0031313102 0.032835819 0.23100001 12024447
0.0042175786 0.032835819 0.23100001 12156033
0.0053038476 0.032835819 0.23100001 12287619
0.0063901162 0.032835819 0.23100001 12879243
0.0074763852 0.032835819 0.23100001 12943751
0.0085626533 0.032835819 0.23100001 14192532
0.0096489228 0.032835819 0.23100001 13864337
0.010688718 0.032693673 0.23 13667728
0.011821459 0.032835819 0.23100001 12419203
0.012851851 0.032693673 0.23 12815506
0.013933416 0.032693673 0.23 13801888
0.015080265 0.032835819 0.23100001 13470358
0.016166534 0.032835819 0.23100001 13009546
0.017252803 0.032835819 0.23100001 13075339
0.018339073 0.032835819 0.23100001 13141132
0.01942534 0.032835819 0.23100001 13141645
0.020511609 0.032835819 0.23100001 13536403
0.021597879 0.032835819 0.23100001 13865368
0.022684148 0.032835819 0.23100001 14587036
0.023770414 0.032835819 0.23100001 14389400
0.024856685 0.032835819 0.23100001 15112353
0.025942953 0.032835819 0.23100001 15507111
0.027029222 0.032835819 0.23100001 14652831
0.02811549 0.032835819 0.23100001 13863315
0.029201759 0.032835819 0.23100001 13863313
0.030288028 0.032835819 0.23100001 15178916
0.031374298 0.032835819 0.23100001 15178916
0.032460567 0.032835819 0.23100001 13665936
0.033546835 0.032835819 0.23100001 13470097
0.0346331 0.032835819 0.23100001 14325917
0.035719369 0.032835819 0.23100001 14459818
0.036805641 0.032835819 0.23100001 11567756
0.037891909 0.032835819 0.23100001 5452349
0.038978178 0.032835819 0.23100001 4206647
0.040064447 0.032835819 0.23100001 4011835
0.041150715 0.032835819 0.23100001 3684153
0.042602669 0.033120111 0.23300001 3618617
-0.015112564 0.035977971 0.245 6112837
-0.013903481 0.035831124 0.24400002 7558228
-0.012703801 0.035684276 0.24300002 9137258
-0.011513526 0.035537425 0.24200001 8281690
-0.010332655 0.035390574 0.24100001 8937823
-0.0091611911 0.035243727 0.24000001 9924718
-0.0079656607 0.034950029 0.23800001 9990511
-0.0068177087 0.034803182 0.23700002 10187120
-0.0056791608 0.034656331 0.23600002 10843253
-0.0045500179 0.034509484 0.23500001 11369082
-0.0034302801 0.034362633 0.23400001 12224393
-0.0023199471 0.034215786 0.23300001 12224393
-0.0012242735 0.034215786 0.23300001 12749452
-0.00012859989 0.034215786 0.23300001 12814729
0.00096707372 0.034215786 0.23300001 12683143
0.0020627475 0.034215786 0.23300001 12025213
0.0031584213 0.034215786 0.23300001 11696764
0.0042540948 0.034215786 0.23300001 12354696
0.0053497683 0.034215786 0.23300001 12880270
0.0064177793 0.034068935 0.23200001 13011342
0.0075087505 0.034068935 0.23200001 12878471
0.0085997218 0.034068935 0.23200001 12548993
0.0096906926 0.034068935 0.23200001 13535888
0.010735191 0.033922087 0.23100001 13470608
0.011821459 0.033922087 0.23100001 13472405
0.012907729 0.033922087 0.23100001 12093580
0.013993997 0.033922087 0.23100001 13408415
0.015080265 0.033922087 0.23100001 14129056
0.016166534 0.033922087 0.23100001 13470610
0.017327491 0.034068935 0.23200001 14720675
0.018418463 0.034068935 0.23200001 14852263
0.019509433 0.034068935 0.23200001 13537173
0.020600405 0.034068935 0.23200001 13668759
0.021691376 0.034068935 0.23200001 13339794
0.022782348 0.034068935 0.23200001 14719392
0.023873318 0.034068935 0.23200001 15245220
0.02496429 0.034068935 0.23200001 15047587
0.026055261 0.034068935 0.23200001 14456220
0.027146231 0.034068935 0.23200001 14193820
0.028237201 0.034068935 0.23200001 13601942
0.029328173 0.034068935 0.23200001 13799575
0.030288028 0.033922087 0.23100001 14457505
0.031374298 0.033922087 0.23100001 14325919
0.032460567 0.033922087 0.23100001 13407897
0.033546835 0.033922087 0.23100001 14527407
0.0346331 0.033922087 0.23100001 11109003
0.035719369 0.033922087 0.23100001 5322048
-0.015297616 0.037584729 0.24800001 5195337
-0.014074424 0.037433177 0.24700001 6442316
-0.012808357 0.037130073 0.245 6967626
-0.011656255 0.037130073 0.245 7625043
-0.010461278 0.036978524 0.24400002 8149850
-0.0092757056 0.036826972 0.24300002 8872289
-0.0080660684 0.036523871 0.24100001 9069155
-0.0069040083 0.036372319 0.24000001 9858925
-0.0057272892 0.036069214 0.23800001 10581878
-0.0045887413 0.035917666 0.23700002 11041916
-0.0034595989 0.035766114 0.23600002 10910076
-0.0023398609 0.035614561 0.23500001 11633029
-0.0012347823 0.035614561 0.23500001 12356490
-0.00012970375 0.035614561 0.23500001 12356231
0.00097537477 0.035614561 0.23500001 12157569
0.0020804536 0.035614561 0.23500001 11960190
0.0031855321 0.035614561 0.23500001 12157315
0.0042906106 0.035614561 0.23500001 12420487
0.005395689 0.035614561 0.23500001 12354696
0.0064731049 0.035463013 0.23400001 12157317
0.0075734812 0.035463013 0.23400001 12485512
0.0086367894 0.03531146 0.23300001 13340819
0.0097324634 0.03531146 0.23300001 12945547
0.010781663 0.035159908 0.23200001 12747916
0.011872634 0.035159908 0.23200001 13407130
0.012963606 0.035159908 0.23200001 12160145
0.014054577 0.035159908 0.23200001 12948377
0.015145548 0.035159908 0.23200001 13603739
0.016236519 0.035159908 0.23200001 13471126
0.01740218 0.03531146 0.23300001 13076368
0.018497853 0.03531146 0.23300001 12878989
0.019593526 0.03531146 0.23300001 13076368
0.020689199 0.03531146 0.23300001 13010575
0.021784874 0.03531146 0.23300001 13536403
0.022880547 0.03531146 0.23300001 14457503
0.02397622 0.03531146 0.23300001 14654369
0.025071895 0.03531146 0.23300001 14982566
0.026167568 0.03531146 0.23300001 12680581
0.027146231 0.035159908 0.23200001 13536403
0.028237201 0.035159908 0.23200001 13799575
0.029328173 0.035159908 0.23200001 13340821
0.030419145 0.035159908 0.23200001 13672352
0.031510118 0.035159908 0.23200001 13279909
0.032460567 0.035008356 0.23100001 7885660
0.033546835 0.035008356 0.23100001 4468023
-0.015420984 0.039063446 0.25 4671305
-0.014245369 0.039063446 0.25 5590865
-0.012965195 0.038750939 0.24800001 6115917
-0.011846562 0.038907193 0.24900001 6705999
-0.010632774 0.038750939 0.24800001 7033937
-0.00939022 0.038438432 0.24600001 7756377
-0.0081664762 0.038125925 0.24400002 8214875
