# .PCD v0.7 - Point Cloud Data file format
VERSION 0.7
FIELDS x y z rgb
SIZE 4 4 4 4
TYPE F F F U
COUNT 1 1 1 1
WIDTH 1098
HEIGHT 1
VIEWPOINT 0 0 0 1 0 0 0
POINTS 1098
DATA ascii
0.01371706 0.0029752657 0.19600001 10773097
0.014638742 0.0029752657 0.19600001 11298928
0.015560426 0.0029752657 0.19600001 11300211
0.016398015 0.0029600859 0.19500001 10905453
0.017314995 0.0029600859 0.19500001 11365750
0.018231975 0.0029600859 0.19500001 9524575
0.019148955 0.0029600859 0.19500001 10052720
0.020065935 0.0029600859 0.19500001 8474717
0.020982916 0.0029600859 0.19500001 8539735
0.021787588 0.0029449058 0.19400001 9920101
0.022699866 0.0029449058 0.19400001 9919585
0.023612143 0.0029449058 0.19400001 9985376
0.024398006 0.0029297259 0.193 12288131
0.025305582 0.0029297259 0.193 11500670
0.026213158 0.0029297259 0.193 11173511
0.027120734 0.0029297259 0.193 10713984
0.028028307 0.0029297259 0.193 8016467
0.028935881 0.0029297259 0.193 6109497
0.029843457 0.0029297259 0.193 6439745
0.0305917 0.0029145458 0.192 6374976
0.031494573 0.0029145458 0.192 6044728
0.032397445 0.0029145458 0.192 5976366
0.033300318 0.0029145458 0.192 7685701
0.034025054 0.0028993662 0.19100001 8211020
0.034923222 0.0028993662 0.19100001 9327196
0.035821389 0.0028993662 0.19100001 10970222
0.036719561 0.0028993662 0.19100001 14389400
0.037617732 0.0028993662 0.19100001 12480374
0.038515903 0.0028993662 0.19100001 13073024
0.039414074 0.0028993662 0.19100001 13204610
0.040312245 0.0028993662 0.19100001 13401989
0.041210417 0.0028993662 0.19100001 14586009
0.042108584 0.0028993662 0.19100001 13862286
0.043006752 0.0028993662 0.19100001 15440805
0.043904923 0.0028993662 0.19100001 15770283
0.044568524 0.0028841863 0.19000001 15705260
0.045222718 0.0028690062 0.18900001 14589089
0.046111483 0.0028690062 0.18900001 11303037
0.047000248 0.0028690062 0.18900001 5058866
-0.015234056 0.0039963601 0.20100001 4407876
-0.01428886 0.0039963601 0.20100001 4994102
-0.013277279 0.0039764778 0.2 12948114
-0.012336787 0.0039764778 0.2 13731979
-0.011396295 0.0039764778 0.2 13794433
-0.010455802 0.0039764778 0.2 13397104
-0.0095153106 0.0039764778 0.2 13857398
-0.0085748173 0.0039764778 0.2 14120570
-0.0076343254 0.0039764778 0.2 13528433
-0.0066938326 0.0039764778 0.2 13133932
-0.005724574 0.0039565954 0.19900002 13003116
-0.0047887838 0.0039565954 0.19900002 12873583
-0.0038529939 0.0039565954 0.19900002 12544618
-0.0029172043 0.0039565954 0.19900002 11887717
-0.0019714574 0.0039367131 0.19800001 11100261
-0.0010403697 0.0039367131 0.19800001 13336712
-0.00010928231 0.0039367131 0.19800001 12019819
0.00082180515 0.0039367131 0.19800001 12019303
0.0017528927 0.0039367131 0.19800001 12742774
0.0026839804 0.0039367131 0.19800001 12020084
0.0036150676 0.0039367131 0.19800001 12284024
0.0045461552 0.0039367131 0.19800001 11165797
0.0054772426 0.0039367131 0.19800001 11102062
0.0064083305 0.0039367131 0.19800001 11957119
0.0073023499 0.0039168308 0.19700001 11759742
0.0082287351 0.0039168308 0.19700001 11693945
0.0091551198 0.0039168308 0.19700001 12285569
0.010081504 0.0039168308 0.19700001 11955834
0.01100789 0.0039168308 0.19700001 16760266
0.011934275 0.0039168308 0.19700001 13996702
0.01286066 0.0039168308 0.19700001 11627639
0.01371706 0.0038969484 0.19600001 12285821
0.014638742 0.0038969484 0.19600001 12680833
0.015560426 0.0038969484 0.19600001 13272970
0.016482107 0.0038969484 0.19600001 13931413
0.017314995 0.0038770658 0.19500001 13669011
0.018231975 0.0038770658 0.19500001 12551305
0.019148955 0.0038770658 0.19500001 16766942
0.020065935 0.0038770658 0.19500001 16767206
0.020982916 0.0038770658 0.19500001 13669020
0.021787588 0.0038571835 0.19400001 13405333
0.022699866 0.0038571835 0.19400001 13339794
0.023612143 0.0038571835 0.19400001 13996700
0.024398006 0.0038373009 0.193 15905982
0.025305582 0.0038373009 0.193 14198706
0.026213158 0.0038373009 0.193 16774910
0.027120734 0.0038373009 0.193 16775929
0.028028307 0.0038373009 0.193 16772845
0.028935881 0.0038373009 0.193 9791079
0.029843457 0.0038373009 0.193 10182241
0.0305917 0.0038174186 0.192 9919323
0.031494573 0.0038174186 0.192 11037291
0.032397445 0.0038174186 0.192 11497072
0.033300318 0.0038174186 0.192 10379361
0.034025054 0.0037975365 0.19100001 11695996
0.034923222 0.0037975365 0.19100001 16368330
0.035821389 0.0037975365 0.19100001 16766174
0.036719561 0.0037975365 0.19100001 16764631
0.037617732 0.0037975365 0.19100001 15111324
0.038515903 0.0037975365 0.19100001 15242910
0.039414074 0.0037975365 0.19100001 15506852
0.040312245 0.0037975365 0.19100001 15769252
0.041210417 0.0037975365 0.19100001 15768482
0.042108584 0.0037975365 0.19100001 15769252
0.043006752 0.0037975365 0.19100001 16428465
0.043904923 0.0037975365 0.19100001 16166065
0.044568524 0.0037776541 0.19000001 15640494
0.045222718 0.0037577716 0.18900001 12617096
0.046111483 0.0037577716 0.18900001 10584445
0.047000248 0.0037577716 0.18900001 10850960
-0.015234056 0.0049415552 0.20100001 4210756
-0.01428886 0.0049415552 0.20100001 5191995
-0.013277279 0.0049169702 0.2 13407384
-0.012336787 0.0049169702 0.2 13598855
-0.011396295 0.0049169702 0.2 15043217
-0.010455802 0.0049169702 0.2 13858427
-0.0095153106 0.0049169702 0.2 13924218
-0.0085748173 0.0049169702 0.2 13332081
-0.0076343254 0.0049169702 0.2 12871014
-0.0066938326 0.0049169702 0.2 12212055
-0.005724574 0.0048923856 0.19900002 10634568
-0.0047887838 0.0048923856 0.19900002 11623014
-0.0038529939 0.0048923856 0.19900002 11361902
-0.0029172043 0.0048923856 0.19900002 10574433
-0.0019714574 0.0048678005 0.19800001 10113882
-0.0010403697 0.0048678005 0.19800001 13008522
-0.00010928231 0.0048678005 0.19800001 10442079
0.00082180515 0.0048678005 0.19800001 12350328
0.0017528927 0.0048678005 0.19800001 10507870
0.0026839804 0.0048678005 0.19800001 15511738
0.0036150676 0.0048678005 0.19800001 16170953
0.0045461552 0.0048678005 0.19800001 13603741
0.0054772426 0.0048678005 0.19800001 13143960
0.0064083305 0.0048678005 0.19800001 12747916
0.0073023499 0.0048432159 0.19700001 14522015
0.0082287351 0.0048432159 0.19700001 14061462
0.0091551198 0.0048432159 0.19700001 13732497
0.010081504 0.0048432159 0.19700001 15378094
0.01100789 0.0048432159 0.19700001 16762578
0.011934275 0.0048432159 0.19700001 16762835
0.01286066 0.0048432159 0.19700001 16761806
0.01371706 0.0048186309 0.19600001 13602194
0.014638742 0.0048186309 0.19600001 13601933
0.015560426 0.0048186309 0.19600001 14127507
0.016482107 0.0048186309 0.19600001 14061714
0.017314995 0.0047940458 0.19500001 13667987
0.018231975 0.0047940458 0.19500001 15511226
0.019148955 0.0047940458 0.19500001 16764631
0.020065935 0.0047940458 0.19500001 14459048
0.020982916 0.0047940458 0.19500001 12746374
0.021787588 0.0047694612 0.19400001 12745604
0.022699866 0.0047694612 0.19400001 13007752
0.023612143 0.0047694612 0.19400001 13600659
0.024398006 0.0047448762 0.193 16233149
0.025305582 0.0047448762 0.193 15447748
0.026213158 0.0047448762 0.193 16775677
0.027120734 0.0047448762 0.193 16777211
0.028028307 0.0047448762 0.193 16776439
0.028935881 0.0047448762 0.193 14986927
0.029843457 0.0047448762 0.193 15705769
0.0305917 0.0047202911 0.192 13929358
0.031494573 0.0047202911 0.192 13929360
0.032397445 0.0047202911 0.192 14456220
0.033300318 0.0047202911 0.192 14522785
0.034025054 0.0046957065 0.19100001 15314357
0.034923222 0.0046957065 0.19100001 16765656
0.035821389 0.0046957065 0.19100001 16767713
0.036719561 0.0046957065 0.19100001 16765400
0.037617732 0.0046957065 0.19100001 14914974
0.038515903 0.0046957065 0.19100001 15441059
0.039414074 0.0046957065 0.19100001 15769252
0.040312245 0.0046957065 0.19100001 15769252
0.041210417 0.0046957065 0.19100001 15769252
0.042108584 0.0046957065 0.19100001 16427952
0.043006752 0.0046957065 0.19100001 16100527
0.043904923 0.0046957065 0.19100001 13536142
0.044568524 0.0046711219 0.19000001 12682375
0.045222718 0.0046465369 0.18900001 10712951
0.046111483 0.0046465369 0.18900001 5455682
0.047000248 0.0046465369 0.18900001 4999245
-0.015234056 0.0058867498 0.20100001 4934477
-0.01428886 0.0058867498 0.20100001 5915720
-0.013277279 0.0058574625 0.2 12617868
-0.012336787 0.0058574625 0.2 13730700
-0.011396295 0.0058574625 0.2 14518160
-0.010455802 0.0058574625 0.2 13792380
-0.0095153106 0.0058574625 0.2 14647943
-0.0085748173 0.0058574625 0.2 14187390
-0.0076343254 0.0058574625 0.2 15371148
-0.0066938326 0.0058574625 0.2 13267060
-0.005724574 0.0058281757 0.19900002 14783390
-0.0047887838 0.0058281757 0.19900002 16763610
-0.0038529939 0.0058281757 0.19900002 16760010
-0.0029172043 0.0058281757 0.19900002 12154237
-0.0019714574 0.0057988884 0.19800001 12943751
-0.0010403697 0.0057988884 0.19800001 14062495
-0.00010928231 0.0057988884 0.19800001 13075339
0.00082180515 0.0057988884 0.19800001 14521238
0.0017528927 0.0057988884 0.19800001 14062486
0.0026839804 0.0057988884 0.19800001 16764629
0.0036150676 0.0057988884 0.19800001 16764374
0.0045461552 0.0057988884 0.19800001 13144991
0.0054772426 0.0057988884 0.19800001 14132653
0.0064083305 0.0057988884 0.19800001 13802142
0.0073023499 0.0057696006 0.19700001 14589859
0.0082287351 0.0057696006 0.19700001 14523296
0.0091551198 0.0057696006 0.19700001 14785955
0.010081504 0.0057696006 0.19700001 14653599
0.01100789 0.0057696006 0.19700001 16761803
0.011934275 0.0057696006 0.19700001 16765917
0.01286066 0.0057696006 0.19700001 14456222
0.01371706 0.0057403133 0.19600001 15048611
0.014638742 0.0057403133 0.19600001 15574953
0.015560426 0.0057403133 0.19600001 14718872
0.016482107 0.0057403133 0.19600001 15771305
0.017314995 0.005711026 0.19500001 13337741
0.018231975 0.005711026 0.19500001 16233666
0.019148955 0.005711026 0.19500001 15444146
0.020065935 0.005711026 0.19500001 13667476
0.020982916 0.005711026 0.19500001 13075337
0.021787588 0.0056817387 0.19400001 12942211
0.022699866 0.0056817387 0.19400001 13599884
0.023612143 0.0056817387 0.19400001 16763859
0.024398006 0.0056524514 0.193 16231611
0.025305582 0.0056524514 0.193 14657462
0.026213158 0.0056524514 0.193 16775419
0.027120734 0.0056524514 0.193 16777209
0.028028307 0.0056524514 0.193 16775925
0.028935881 0.0056524514 0.193 14657962
0.029843457 0.0056524514 0.193 15441572
0.0305917 0.0056231641 0.192 15770537
0.031494573 0.0056231641 0.192 16166068
0.032397445 0.0056231641 0.192 14653601
0.033300318 0.0056231641 0.192 14390945
0.034025054 0.0055938768 0.19100001 16368330
0.034923222 0.0055938768 0.19100001 16767196
0.035821389 0.0055938768 0.19100001 16768998
0.036719561 0.0055938768 0.19100001 16769771
0.037617732 0.0055938768 0.19100001 13994644
0.038515903 0.0055938768 0.19100001 16427184
0.039414074 0.0055938768 0.19100001 15638434
0.040312245 0.0055938768 0.19100001 15112090
0.041210417 0.0055938768 0.19100001 13928329
0.042108584 0.0055938768 0.19100001 12942461
0.043006752 0.0055938768 0.19100001 13010309
0.043904923 0.0055938768 0.19100001 13077899
0.044568524 0.0055645895 0.19000001 12290186
0.045222718 0.0055353022 0.18900001 7952221
0.046111483 0.0055353022 0.18900001 4800583
0.047000248 0.0055353022 0.18900001 4473928
-0.015234056 0.0068319445 0.20100001 5066065
-0.01428886 0.0068319445 0.20100001 6376271
-0.013277279 0.0067979544 0.2 14657964
-0.012398471 0.0068319445 0.20100001 14916255
-0.011453277 0.0068319445 0.20100001 14256785
-0.010455802 0.0067979544 0.2 15043732
-0.0095153106 0.0067979544 0.2 16755893
-0.0085748173 0.0067979544 0.2 16756408
-0.0076343254 0.0067979544 0.2 16754864
-0.0066938326 0.0067979544 0.2 14189198
-0.005724574 0.0067639654 0.19900002 16764121
-0.0047887838 0.0067639654 0.19900002 16770800
-0.0038529939 0.0067639654 0.19900002 16770027
-0.0029172043 0.0067639654 0.19900002 13996439
-0.0019714574 0.0067299753 0.19800001 14654623
-0.0010403697 0.0067299753 0.19800001 14918574
-0.00010928231 0.0067299753 0.19800001 13667735
0.00082180515 0.0067299753 0.19800001 15835815
0.0017528927 0.0067299753 0.19800001 14784667
0.0026839804 0.0067299753 0.19800001 16766676
0.0036150676 0.0067299753 0.19800001 16768220
0.0045461552 0.0067299753 0.19800001 14987960
0.0054772426 0.0067299753 0.19800001 13540262
0.0064083305 0.0067299753 0.19800001 13144725
0.0073023499 0.0066959853 0.19700001 14128279
0.0082287351 0.0066959853 0.19700001 14588060
0.0091551198 0.0066959853 0.19700001 15245990
0.010081504 0.0066959853 0.19700001 15508390
0.01100789 0.0066959853 0.19700001 15244191
0.011934275 0.0066959853 0.19700001 14981021
0.01286066 0.0066959853 0.19700001 14915228
0.01371706 0.0066619958 0.19600001 14915226
0.014638742 0.0066619958 0.19600001 14455445
0.015560426 0.0066619958 0.19600001 15113373
0.016482107 0.0066619958 0.19600001 14258066
0.017314995 0.0066280058 0.19500001 13139844
0.018231975 0.0066280058 0.19500001 15179175
0.019148955 0.0066280058 0.19500001 14127255
0.020065935 0.0066280058 0.19500001 13733521
0.020982916 0.0066280058 0.19500001 13996693
0.021787588 0.0065940162 0.19400001 13995923
0.022699866 0.0065940162 0.19400001 13731724
0.023612143 0.0065940162 0.19400001 13664907
0.02452442 0.0065940162 0.19400001 16296629
0.025305582 0.0065600262 0.193 16363965
0.026213158 0.0065600262 0.193 15708601
0.027120734 0.0065600262 0.193 16369352
0.028028307 0.0065600262 0.193 16764373
0.028935881 0.0065600262 0.193 15312301
0.029843457 0.0065600262 0.193 16765143
0.0305917 0.0065260362 0.192 14257819
0.031494573 0.0065260362 0.192 16165559
0.032397445 0.0065260362 0.192 15508140
0.033300318 0.0065260362 0.192 15376552
0.03420319 0.0065260362 0.192 15378094
0.035106063 0.0065260362 0.192 16766169
0.036008935 0.0065260362 0.192 16768742
0.036911808 0.0065260362 0.192 16771314
0.03781468 0.0065260362 0.192 13534348
0.038717553 0.0065260362 0.192 15178918
0.039620429 0.0065260362 0.192 14653083
0.040523302 0.0065260362 0.192 14258323
0.041426174 0.0065260362 0.192 13140612
0.042329043 0.0065260362 0.192 12944516
0.043231916 0.0065260362 0.192 12354178
0.044134788 0.0065260362 0.192 11499900
0.044568524 0.0064580571 0.19000001 8213078
0.045222718 0.0064240671 0.18900001 4337718
0.046111483 0.0064240671 0.18900001 3750205
0.047000248 0.0064240671 0.18900001 3356987
-0.015309848 0.0078158323 0.20200001 4736841
-0.01428886 0.0077771395 0.20100001 6111562
-0.013343666 0.0077771395 0.20100001 13803686
-0.012398471 0.0077771395 0.20100001 14589343
-0.011453277 0.0077771395 0.20100001 14587290
-0.010455802 0.0077384473 0.2 15307933
-0.0095153106 0.0077384473 0.2 16754870
-0.0085748173 0.0077384473 0.2 16755384
-0.0076343254 0.0077384473 0.2 16690104
-0.0066938326 0.0077384473 0.2 16624311
-0.005724574 0.0076997555 0.19900002 15838906
-0.0047887838 0.0076997555 0.19900002 16771826
-0.0038529939 0.0076997555 0.19900002 16771823
-0.0029172043 0.0076997555 0.19900002 14852263
-0.0019814142 0.0076997555 0.19900002 14719392
-0.0010403697 0.0076610632 0.19800001 14786986
-0.00010928231 0.0076610632 0.19800001 14458275
0.00082180515 0.0076610632 0.19800001 16296879
0.0017528927 0.0076610632 0.19800001 15506848
0.0026839804 0.0076610632 0.19800001 15113375
0.0036150676 0.0076610632 0.19800001 14324888
0.0045461552 0.0076610632 0.19800001 14590888
0.0054772426 0.0076610632 0.19800001 12356756
0.0064083305 0.0076610632 0.19800001 13211036
0.0073394175 0.0076610632 0.19800001 13734550
0.0082287351 0.007622371 0.19700001 14062999
0.0091551198 0.007622371 0.19700001 14062486
0.010081504 0.007622371 0.19700001 15113632
0.01100789 0.007622371 0.19700001 14915226
0.011934275 0.007622371 0.19700001 14585748
0.01286066 0.007622371 0.19700001 14717334
0.01371706 0.0075836787 0.19600001 14848920
0.014638742 0.0075836787 0.19600001 14652054
0.015560426 0.0075836787 0.19600001 13534343
0.016482107 0.0075836787 0.19600001 13402757
0.017403791 0.0075836787 0.19600001 13336964
0.018231975 0.0075449864 0.19500001 12877440
0.019148955 0.0075449864 0.19500001 13536142
0.020065935 0.0075449864 0.19500001 13470608
0.020982916 0.0075449864 0.19500001 13865366
0.021899896 0.0075449864 0.19500001 13865366
0.022699866 0.0075062942 0.19400001 14325404
0.023612143 0.0075062942 0.19400001 14652829
0.02452442 0.0075062942 0.19400001 14718365
0.025436699 0.0075062942 0.19400001 15901869
0.026348976 0.0075062942 0.19400001 16760258
0.027261255 0.0075062942 0.19400001 16166322
0.028028307 0.0074676014 0.193 15969459
0.028935881 0.0074676014 0.193 16101047
0.029843457 0.0074676014 0.193 16764635
0.030751033 0.0074676014 0.193 16760782
0.031658608 0.0074676014 0.193 15113900
0.032566182 0.0074676014 0.193 15640496
0.03347376 0.0074676014 0.193 16166068
0.034381334 0.0074676014 0.193 14455450
0.035288908 0.0074676014 0.193 13666704
0.036196481 0.0074676014 0.193 13075337
0.037104059 0.0074676014 0.193 12877958
0.038011633 0.0074676014 0.193 13140360
0.03891921 0.0074676014 0.193 12548223
0.039826784 0.0074676014 0.193 12285821
0.040734358 0.0074676014 0.193 12483965
0.041641936 0.0074676014 0.193 12747907
0.04254951 0.0074676014 0.193 13011340
0.043457083 0.0074676014 0.193 10117734
0.044134788 0.0074289092 0.192 9592932
0.044568524 0.0073515251 0.19000001 9268335
-0.015309848 0.0087657291 0.20200001 9534571
-0.01428886 0.0087223342 0.20100001 6967626
-0.013343666 0.0087223342 0.20100001 7360851
-0.012398471 0.0087223342 0.20100001 12618381
-0.011453277 0.0087223342 0.20100001 14259093
-0.010455802 0.0086789392 0.2 15571873
-0.0095153106 0.0086789392 0.2 16757435
-0.0085748173 0.0086789392 0.2 16758208
-0.0076343254 0.0086789392 0.2 16757177
-0.0066938326 0.0086789392 0.2 16229035
-0.005724574 0.0086355451 0.19900002 16624309
-0.0048128478 0.0086789392 0.2 16766684
-0.0038529939 0.0086355451 0.19900002 16626873
-0.0029172043 0.0086355451 0.19900002 16032422
-0.0019814142 0.0086355451 0.19900002 16164010
-0.0010456241 0.0086355451 0.19900002 14983334
-0.00010983424 0.0086355451 0.19900002 15049640
0.00082595571 0.0086355451 0.19900002 15902119
0.0017617458 0.0086355451 0.19900002 14519183
0.0026975358 0.0086355451 0.19900002 14651539
0.0036150676 0.0085921502 0.19800001 14454675
0.0045461552 0.0085921502 0.19800001 14325658
0.0054772426 0.0085921502 0.19800001 11829383
0.0064083305 0.0085921502 0.19800001 11434623
0.0073394175 0.0085921502 0.19800001 13076622
0.0082705058 0.0085921502 0.19800001 13734550
0.0092015928 0.0085921502 0.19800001 13668241
0.010081504 0.0085487552 0.19700001 13865105
0.01100789 0.0085487552 0.19700001 14456472
0.011934275 0.0085487552 0.19700001 14652822
0.01286066 0.0085487552 0.19700001 14521236
0.013787045 0.0085487552 0.19700001 14323859
0.014638742 0.0085053612 0.19600001 13797774
0.015560426 0.0085053612 0.19600001 13336969
0.016482107 0.0085053612 0.19600001 13205383
0.017403791 0.0085053612 0.19600001 13271946
0.018325472 0.0085053612 0.19600001 12681092
0.019247156 0.0085053612 0.19600001 12681862
0.020168837 0.0085053612 0.19600001 13668757
0.021090521 0.0085053612 0.19600001 13405585
0.022012204 0.0085053612 0.19600001 13537171
0.022816876 0.0084619662 0.19500001 13997722
0.023733856 0.0084619662 0.19500001 14062745
0.024650836 0.0084619662 0.19500001 13930646
0.025567817 0.0084619662 0.19500001 14193048
0.026484797 0.0084619662 0.19500001 14522013
0.027401777 0.0084619662 0.19500001 14785955
0.028173532 0.0084185712 0.19400001 14456990
0.029085808 0.0084185712 0.19400001 14391197
0.029998086 0.0084185712 0.19400001 14062232
0.030910363 0.0084185712 0.19400001 13996439
0.03182264 0.0084185712 0.19400001 13469843
0.032734919 0.0084185712 0.19400001 13470097
0.033647198 0.0084185712 0.19400001 12614788
0.034559477 0.0084185712 0.19400001 12679811
0.035471752 0.0084185712 0.19400001 13009544
0.036384027 0.0084185712 0.19400001 13272970
0.037296306 0.0084185712 0.19400001 13405069
0.038208585 0.0084185712 0.19400001 13011081
0.039120864 0.0084185712 0.19400001 13273999
0.040033139 0.0084185712 0.19400001 12221824
0.040945418 0.0084185712 0.19400001 12813961
0.041857697 0.0084185712 0.19400001 12156799
0.042769972 0.0084185712 0.19400001 10972271
0.043907415 0.0084619662 0.19500001 10645107
0.04459453 0.0084185712 0.19400001 9792110
-0.015234056 0.0096675297 0.20100001 5062459
-0.01428886 0.0096675297 0.20100001 4734526
-0.013343666 0.0096675297 0.20100001 5523275
-0.012398471 0.0096675297 0.20100001 10782087
-0.011453277 0.0096675297 0.20100001 12751248
-0.010455802 0.0096194325 0.2 13076104
-0.0095153106 0.0096194325 0.2 13599368
-0.0085748173 0.0096194325 0.2 13928331
-0.0076343254 0.0096194325 0.2 14388369
-0.006727302 0.0096675297 0.20100001 14387599
-0.0057533402 0.0096194325 0.2 14782357
-0.0048128478 0.0096194325 0.2 15242138
-0.0038723554 0.0096194325 0.2 15636894
-0.0029318633 0.0096194325 0.2 15506078
-0.0019913709 0.0096194325 0.2 15572643
-0.0010508785 0.0096194325 0.2 15049127
-0.00011038617 0.0096194325 0.2 13471378
0.00083010615 0.0096194325 0.2 14391449
0.0017705987 0.0096194325 0.2 13797772
0.002711091 0.0096194325 0.2 14192273
0.0036333255 0.0095713353 0.19900002 14718617
0.0045691156 0.0095713353 0.19900002 14850460
0.0055049057 0.0095713353 0.19900002 14785955
0.0064406958 0.0095713353 0.19900002 13339794
0.0073764855 0.0095713353 0.19900002 13274001
0.0083122756 0.0095713353 0.19900002 13865366
0.0092480658 0.0095713353 0.19900002 13865107
0.01013268 0.0095232381 0.19800001 13996691
0.011063768 0.0095232381 0.19800001 14325656
0.011934275 0.0094751408 0.19700001 14061714
0.01286066 0.0094751408 0.19700001 13864335
0.013787045 0.0094751408 0.19700001 13864853
0.01471343 0.0094751408 0.19700001 13010829
0.015639815 0.0094751408 0.19700001 12812678
0.0165662 0.0094751408 0.19700001 13272716
0.017492585 0.0094751408 0.19700001 13141643
0.01841897 0.0094751408 0.19700001 13536401
0.019345356 0.0094751408 0.19700001 13405585
0.020271739 0.0094751408 0.19700001 13208721
0.021198126 0.0094751408 0.19700001 13011342
0.02212451 0.0094751408 0.19700001 13274001
0.022933885 0.0094270436 0.19600001 13010829
0.023855567 0.0094270436 0.19600001 13866138
0.02477725 0.0094270436 0.19600001 13799575
0.025698934 0.0094270436 0.19600001 13470097
0.026620617 0.0094270436 0.19600001 12878219
0.027542299 0.0094270436 0.19600001 12549254
0.028318757 0.0093789464 0.19500001 12417922
0.029235736 0.0093789464 0.19500001 12878471
0.030152716 0.0093789464 0.19500001 12944264
0.031069696 0.0093789464 0.19500001 12615301
0.031986676 0.0093789464 0.19500001 12483202
0.032903656 0.0093789464 0.19500001 13272716
0.033820637 0.0093789464 0.19500001 13206923
0.034737617 0.0093789464 0.19500001 12943751
0.035654597 0.0093789464 0.19500001 13010057
0.036571577 0.0093789464 0.19500001 12879241
0.037488557 0.0093789464 0.19500001 12813448
0.038405538 0.0093789464 0.19500001 12813961
0.039322518 0.0093789464 0.19500001 12682375
0.040239498 0.0093789464 0.19500001 12682889
0.041156478 0.0093789464 0.19500001 12223108
0.042073458 0.0093789464 0.19500001 11434875
0.043210901 0.0094270436 0.19600001 11435388
0.044132583 0.0094270436 0.19600001 10120814
0.045054268 0.0094270436 0.19600001 8213846
-0.011453277 0.010612723 0.20100001 4600890
-0.010455802 0.010559924 0.2 8872291
-0.0095153106 0.010559924 0.2 12881805
-0.0085748173 0.010559924 0.2 13340559
-0.0076343254 0.010559924 0.2 13009798
-0.006727302 0.010612723 0.20100001 13534602
-0.0057821069 0.010612723 0.20100001 13994896
-0.0048128478 0.010559924 0.2 14060689
-0.0038723554 0.010559924 0.2 13600138
-0.0029465226 0.010612723 0.20100001 15113123
-0.0019913709 0.010559924 0.2 14718622
-0.001056133 0.010612723 0.20100001 14720677
-0.0001109381 0.010612723 0.20100001 12157576
0.0008342567 0.010612723 0.20100001 13340819
0.0017794516 0.010612723 0.20100001 13075850
0.002711091 0.010559924 0.2 13864853
0.0036515833 0.010559924 0.2 14126739
0.0045920755 0.010559924 0.2 14588058
0.0055325679 0.010559924 0.2 14522013
0.0064730607 0.010559924 0.2 13470608
0.0074135526 0.010559924 0.2 13208208
0.0083540455 0.010559924 0.2 13866138
0.0092480658 0.010507125 0.19900002 14326171
0.010183855 0.010507125 0.19900002 14588830
0.011119645 0.010507125 0.19900002 14523035
0.011994855 0.010454325 0.19800001 14588828
0.012925942 0.010454325 0.19800001 13536655
0.01385703 0.010454325 0.19800001 12814223
0.014788118 0.010454325 0.19800001 12422031
0.015719205 0.010454325 0.19800001 12881040
0.016650293 0.010454325 0.19800001 13076622
0.017581381 0.010454325 0.19800001 12681864
0.018512469 0.010454325 0.19800001 13471380
0.019443557 0.010454325 0.19800001 13471893
0.020374643 0.010454325 0.19800001 13603479
0.021305731 0.010454325 0.19800001 13077395
0.022236818 0.010454325 0.19800001 13472407
0.023050897 0.010401526 0.19700001 12879756
0.02397728 0.010401526 0.19700001 12418692
0.024903666 0.010401526 0.19700001 13537173
0.025830051 0.010401526 0.19700001 13667989
0.026756436 0.010401526 0.19700001 13339024
0.027682822 0.010401526 0.19700001 12812426
0.028463982 0.010348726 0.19600001 12681094
0.029385662 0.010348726 0.19600001 12812678
0.030307345 0.010348726 0.19600001 12878471
0.031229028 0.010348726 0.19600001 12483715
0.032150712 0.010348726 0.19600001 12417922
0.033072393 0.010348726 0.19600001 12681094
0.033994079 0.010348726 0.19600001 13207436
0.03491576 0.010348726 0.19600001 13404815
0.035837442 0.010348726 0.19600001 12813448
0.036759123 0.010348726 0.19600001 11761789
0.037680805 0.010348726 0.19600001 11695996
0.03860249 0.010348726 0.19600001 11762559
0.039524172 0.010348726 0.19600001 12025729
0.040445853 0.010348726 0.19600001 12749452
0.041578598 0.010401526 0.19700001 11894656
0.042504981 0.010401526 0.19700001 10974839
0.043431364 0.010401526 0.19700001 10055021
0.044582918 0.010454325 0.19800001 8870495
0.045973741 0.010559924 0.2 8213848
-0.015639549 0.012650459 0.22000001 2236956
-0.014538622 0.012592957 0.21900001 2894886
-0.013508783 0.012592957 0.21900001 3092524
-0.012194037 0.012305447 0.21400002 2960938
-0.0095153106 0.011500417 0.2 5452854
-0.0085748173 0.011500417 0.2 10646904
-0.0076724971 0.011557919 0.20100001 12157828
-0.006727302 0.011557919 0.20100001 12878725
-0.0057821069 0.011557919 0.20100001 13995923
-0.0048369123 0.011557919 0.20100001 14061716
-0.0038917174 0.011557919 0.20100001 13864337
-0.0029465226 0.011557919 0.20100001 13864337
-0.0020013277 0.011557919 0.20100001 13864337
-0.001056133 0.011557919 0.20100001 13932442
-0.0001109381 0.011557919 0.20100001 11960967
0.0008342567 0.011557919 0.20100001 13408413
0.0017794516 0.011557919 0.20100001 13932958
0.0027246466 0.011557919 0.20100001 13799827
0.0036698412 0.011557919 0.20100001 13930900
0.0046150358 0.011557919 0.20100001 13733521
0.0055602309 0.011557919 0.20100001 13404302
0.006505426 0.011557919 0.20100001 13273999
0.0074506206 0.011557919 0.20100001 13800345
0.0083958162 0.011557919 0.20100001 13668757
0.0092945378 0.011500417 0.2 13931929
0.010235029 0.011500417 0.2 14062745
0.011119645 0.011442916 0.19900002 14325917
0.012055435 0.011442916 0.19900002 14260126
0.012991224 0.011442916 0.19900002 12418692
0.013927015 0.011442916 0.19900002 11828613
0.014862806 0.011442916 0.19900002 13146272
0.015798597 0.011442916 0.19900002 12619412
0.016734384 0.011442916 0.19900002 13078165
0.017670175 0.011442916 0.19900002 13011088
0.018605966 0.011442916 0.19900002 12353412
0.019541755 0.011442916 0.19900002 12682377
0.020477545 0.011442916 0.19900002 12616844
0.021413336 0.011442916 0.19900002 12682637
0.022349125 0.011442916 0.19900002 11893891
0.023167906 0.011385413 0.19800001 12749454
0.024098992 0.011385413 0.19800001 12682891
0.02503008 0.011385413 0.19800001 12550278
0.025961168 0.011385413 0.19800001 13536401
0.026892256 0.011385413 0.19800001 13404817
0.027823344 0.011385413 0.19800001 13075852
0.028609207 0.011327911 0.19700001 13141645
0.02953559 0.011327911 0.19700001 13404815
0.030461974 0.011327911 0.19700001 13339022
0.031388361 0.011327911 0.19700001 12352897
0.032314748 0.011327911 0.19700001 12287106
0.03324113 0.011327911 0.19700001 12089727
0.034167517 0.011327911 0.19700001 12484998
0.035093904 0.011327911 0.19700001 12617098
0.036020283 0.011327911 0.19700001 12683661
0.036946669 0.011327911 0.19700001 12354955
0.037873056 0.011327911 0.19700001 11697279
0.038799442 0.011327911 0.19700001 11697279
0.039725825 0.011327911 0.19700001 11960451
0.040858567 0.011385413 0.19800001 11828865
0.041789655 0.011385413 0.19800001 9658212
0.042936508 0.011442916 0.19900002 9527653
0.043872293 0.011442916 0.19900002 9133665
0.045033246 0.011500417 0.2 8608604
0.04620361 0.011557919 0.20100001 8346461
0.047383375 0.011615422 0.20200001 7821402
-0.016066082 0.014058228 0.22600001 2631720
-0.015069712 0.014120433 0.22700001 2039583
-0.014002254 0.014120433 0.22700001 2236962
-0.012934796 0.014120433 0.22700001 2631720
-0.011867336 0.014120433 0.22700001 2631720
-0.0085748173 0.012440909 0.2 3481892
-0.0077106687 0.012565318 0.20200001 10188667
-0.0067942403 0.012627522 0.20300001 12290186
-0.0058396407 0.012627522 0.20300001 13274001
-0.0048609762 0.012565318 0.20200001 13733267
-0.0039110789 0.012565318 0.20200001 14457244
-0.002961182 0.012565318 0.20200001 14457244
-0.0020112847 0.012565318 0.20200001 14917793
-0.0010613874 0.012565318 0.20200001 14787492
-0.00011149003 0.012565318 0.20200001 13144725
0.00083840726 0.012565318 0.20200001 11236476
0.0017883047 0.012565318 0.20200001 13143958
0.002738202 0.012565318 0.20200001 13076620
0.0036880991 0.012565318 0.20200001 13010311
0.0046379967 0.012565318 0.20200001 13207177
0.005587894 0.012565318 0.20200001 13141130
0.0065377913 0.012565318 0.20200001 13206923
0.0074876887 0.012565318 0.20200001 13864853
0.008437586 0.012565318 0.20200001 14193818
0.0093410108 0.012503114 0.20100001 14193818
0.010286205 0.012503114 0.20100001 14719392
0.011175523 0.012440909 0.2 13996439
0.012116014 0.012440909 0.2 13076622
0.012991224 0.012378705 0.19900002 12484485
0.013927015 0.012378705 0.19900002 11762305
0.014862806 0.012378705 0.19900002 12356502
0.015798597 0.012378705 0.19900002 12026762
0.016734384 0.012378705 0.19900002 13538970
0.017758969 0.012440909 0.2 12616844
0.018699462 0.012440909 0.2 12090500
0.019639954 0.012440909 0.2 12353672
0.020580446 0.012440909 0.2 12747916
0.021520939 0.012440909 0.2 12024193
0.022461431 0.012440909 0.2 11893891
0.023284916 0.012378705 0.19900002 11959684
0.024220705 0.012378705 0.19900002 11959684
0.025156494 0.012378705 0.19900002 12353926
0.026092285 0.012378705 0.19900002 12880270
0.027028076 0.012378705 0.19900002 12945549
0.027963866 0.012378705 0.19900002 13208206
0.028754432 0.012316501 0.19800001 13537171
0.029685516 0.012316501 0.19800001 13208206
0.030616604 0.012316501 0.19800001 13010827
0.031547692 0.012316501 0.19800001 13274001
0.03247878 0.012316501 0.19800001 12484485
0.033409867 0.012316501 0.19800001 12156033
0.034340955 0.012316501 0.19800001 11696766
0.035272043 0.012316501 0.19800001 12157576
0.036203127 0.012316501 0.19800001 11960967
0.037134215 0.012316501 0.19800001 11960967
0.038065303 0.012316501 0.19800001 11961221
0.039193343 0.012378705 0.19900002 11697279
0.040129136 0.012378705 0.19900002 11170935
0.041064925 0.012378705 0.19900002 10842486
0.042211771 0.012440909 0.2 10119276
0.043152265 0.012440909 0.2 9989228
0.044313218 0.012503114 0.20100001 9134432
0.045483582 0.012565318 0.20200001 8806750
0.046433479 0.012565318 0.20200001 8478045
-0.015069712 0.01518789 0.22700001 2434343
-0.014002254 0.01518789 0.22700001 1776413
-0.012991777 0.015254797 0.22800002 2565931
-0.011919615 0.015254797 0.22800002 2697256
-0.010609571 0.014920262 0.223 2631463
-0.0078251837 0.013715937 0.20500001 3415846
-0.0068277097 0.01364903 0.20400001 10056313
-0.0058684074 0.01364903 0.20400001 12356754
-0.0049091051 0.01364903 0.20400001 12222856
-0.0039498028 0.01364903 0.20400001 12813448
-0.0029758413 0.013582123 0.20300001 13996952
-0.0020212415 0.013582123 0.20300001 14326171
-0.0010666418 0.013582123 0.20300001 14326171
-0.00011204195 0.013582123 0.20300001 13866136
0.00084255781 0.013582123 0.20300001 13340307
0.0017971577 0.013582123 0.20300001 12550278
0.0027517574 0.013582123 0.20300001 12549508
0.0037063572 0.013582123 0.20300001 12615299
0.004660957 0.013582123 0.20300001 12811649
0.0056155566 0.013582123 0.20300001 13797774
0.0065701571 0.013582123 0.20300001 14324118
0.0075247562 0.013582123 0.20300001 14718876
0.0084793568 0.013582123 0.20300001 14522267
0.0093874829 0.013515215 0.20200001 13864083
0.01033738 0.013515215 0.20200001 13798290
0.0112314 0.013448308 0.20100001 13404302
0.012176595 0.013448308 0.20100001 13339022
0.013056506 0.013381401 0.2 12550278
0.013996999 0.013381401 0.2 12090500
0.014937492 0.013381401 0.2 12751510
0.015877984 0.013381401 0.2 11961482
0.016818477 0.013381401 0.2 13142674
0.017847763 0.013448308 0.20100001 13143188
0.018792959 0.013448308 0.20100001 12879502
0.019738154 0.013448308 0.20100001 12024447
0.020683348 0.013448308 0.20100001 11958654
0.021628544 0.013448308 0.20100001 11958654
0.022573739 0.013448308 0.20100001 11893375
0.023401923 0.013381401 0.2 11762559
0.024342416 0.013381401 0.2 11959684
0.025282908 0.013381401 0.2 12354442
0.026223401 0.013381401 0.2 12617614
0.027163893 0.013381401 0.2 12420489
0.028104385 0.013381401 0.2 13472407
0.02904488 0.013381401 0.2 13340307
0.029985368 0.013381401 0.2 13603479
0.030925861 0.013381401 0.2 13603479
0.031866353 0.013381401 0.2 12089473
0.032806847 0.013381401 0.2 11695228
0.033747341 0.013381401 0.2 12090500
0.034687832 0.013381401 0.2 12091783
0.035628326 0.013381401 0.2 11828865
0.036568817 0.013381401 0.2 11828865
0.037509307 0.013381401 0.2 11894656
0.038449802 0.013381401 0.2 12157828
0.039390292 0.013381401 0.2 11566463
0.04053244 0.013448308 0.20100001 10711413
0.041477636 0.013448308 0.20100001 10250862
0.042422831 0.013448308 0.20100001 9594216
0.043368027 0.013448308 0.20100001 9266018
0.044533681 0.013515215 0.20200001 8740444
0.045708746 0.013582123 0.20300001 8544092
0.046663348 0.013582123 0.20300001 8544610
-0.015069712 0.016255351 0.22700001 2630693
-0.014002254 0.016255351 0.22700001 2235935
-0.012991777 0.01632696 0.22800002 2499879
-0.011919615 0.01632696 0.22800002 2565670
-0.010752301 0.01618374 0.22600001 2631720
-0.0090464326 0.015109599 0.21100001 2829352
-0.0078633558 0.014751552 0.20600002 3091497
-0.0068946481 0.014751552 0.20600002 3285032
-0.0059259408 0.014751552 0.20600002 7688798
-0.0049331691 0.014679941 0.20500001 11239041
-0.0039691646 0.014679941 0.20500001 12749452
-0.00300516 0.014679941 0.20500001 12551303
-0.0020311985 0.014608332 0.20400001 13471891
-0.0010718962 0.014608332 0.20400001 13669011
-0.00011259389 0.014608332 0.20400001 13274253
0.00084670831 0.014608332 0.20400001 13602194
0.0018060107 0.014608332 0.20400001 13075850
0.002765313 0.014608332 0.20400001 12878471
0.0037246151 0.014608332 0.20400001 13075339
0.0046839174 0.014608332 0.20400001 14653853
0.0056432197 0.014608332 0.20400001 14785439
0.0066025225 0.014608332 0.20400001 14588830
0.0075618243 0.014608332 0.20400001 14457244
0.0085211266 0.014608332 0.20400001 14391451
0.0094339559 0.014536723 0.20300001 13865107
0.010388555 0.014536723 0.20300001 13601935
0.011287278 0.014465113 0.20200001 13076874
0.012237174 0.014465113 0.20200001 13273999
0.013121789 0.014393503 0.20100001 13076620
0.014066984 0.014393503 0.20100001 12748168
0.01501218 0.014393503 0.20100001 12355209
0.015957374 0.014393503 0.20100001 11698310
0.016902568 0.014393503 0.20100001 11762307
0.017936559 0.014465113 0.20200001 11366777
0.018886456 0.014465113 0.20200001 12156293
0.019836355 0.014465113 0.20200001 12090754
0.02078625 0.014465113 0.20200001 12814475
0.021736149 0.014465113 0.20200001 12222338
0.022686046 0.014465113 0.20200001 11630971
0.023518933 0.014393503 0.20100001 13012626
0.024464127 0.014393503 0.20100001 13144212
0.025409322 0.014393503 0.20100001 12684174
0.026354518 0.014393503 0.20100001 12421002
0.027299713 0.014393503 0.20100001 11960451
0.028244909 0.014393503 0.20100001 12025731
0.029190104 0.014393503 0.20100001 13077395
0.030135296 0.014393503 0.20100001 13208981
0.031080492 0.014393503 0.20100001 13011342
0.032025687 0.014393503 0.20100001 12945549
0.032970883 0.014393503 0.20100001 13077649
0.033916079 0.014393503 0.20100001 12749454
0.03486127 0.014393503 0.20100001 12421002
0.035806466 0.014393503 0.20100001 12290186
0.036751658 0.014393503 0.20100001 12224391
0.037884403 0.014465113 0.20200001 12224391
0.0388343 0.014465113 0.20200001 11895426
0.039784197 0.014465113 0.20200001 10842999
0.040734094 0.014465113 0.20200001 9921899
0.041683994 0.014465113 0.20200001 9527653
0.042844951 0.014536723 0.20300001 9528936
0.043583788 0.014465113 0.20200001 9069409
0.044533681 0.014465113 0.20200001 9069922
0.045708746 0.014536723 0.20300001 8084057
0.046663348 0.014536723 0.20300001 7295058
-0.014125622 0.017475434 0.22900002 2434337
-0.012991777 0.017399121 0.22800002 2565670
-0.011919615 0.017399121 0.22800002 2631463
-0.0092179291 0.016407065 0.215 2697513
-0.007901527 0.01579657 0.20700002 2697513
-0.0069281175 0.01579657 0.20700002 3091244
-0.0059547075 0.01579657 0.20700002 3219752
-0.004981298 0.01579657 0.20700002 6046022
-0.004007888 0.01579657 0.20700002 9989487
-0.0030344788 0.01579657 0.20700002 12487565
-0.0020511122 0.015720259 0.20600002 12552588
-0.0010771506 0.015643947 0.20500001 12552586
-0.00011314582 0.015643947 0.20500001 12617866
0.00085085887 0.015643947 0.20500001 12748936
0.0018148638 0.015643947 0.20500001 13340559
0.0027788684 0.015643947 0.20500001 13207436
0.003742873 0.015643947 0.20500001 12812678
0.0047068777 0.015643947 0.20500001 12878473
0.0056708823 0.015643947 0.20500001 13667989
0.0066348878 0.015643947 0.20500001 14260378
0.0075988919 0.015643947 0.20500001 13997206
0.0085628973 0.015643947 0.20500001 13537425
0.0094804289 0.015567635 0.20400001 13537425
0.01043973 0.015567635 0.20400001 12945288
0.011343156 0.015491323 0.20300001 12681862
0.012297755 0.015491323 0.20300001 12287104
0.013187071 0.015415011 0.20200001 12287104
0.014136969 0.015415011 0.20200001 13339792
0.015086867 0.015415011 0.20200001 12881038
0.016036766 0.015415011 0.20200001 12093068
0.016986661 0.015415011 0.20200001 12289162
0.018025354 0.015491323 0.20300001 11234677
0.018979954 0.015491323 0.20300001 11629949
0.019934554 0.015491323 0.20300001 12353672
0.020889154 0.015491323 0.20300001 12880270
0.021843754 0.015491323 0.20300001 12880786
0.022798354 0.015491323 0.20300001 12946579
0.023635944 0.015415011 0.20200001 12946833
0.024585839 0.015415011 0.20200001 12552075
0.025535738 0.015415011 0.20200001 12354696
0.026485635 0.015415011 0.20200001 12025731
0.027435534 0.015415011 0.20200001 12223110
0.028385431 0.015415011 0.20200001 11959938
0.029335327 0.015415011 0.20200001 12354442
0.030285222 0.015415011 0.20200001 12354442
0.031235121 0.015415011 0.20200001 12157063
0.032185018 0.015415011 0.20200001 12486282
0.033134915 0.015415011 0.20200001 12289416
0.034084816 0.015415011 0.20200001 12158600
0.035034712 0.015415011 0.20200001 12290699
0.035984609 0.015415011 0.20200001 12356492
0.037117347 0.015491323 0.20300001 11303804
0.038071949 0.015491323 0.20300001 10711665
0.039026547 0.015491323 0.20300001 10843765
0.040178102 0.015567635 0.20400001 10317939
0.041137405 0.015567635 0.20400001 9594218
0.042096708 0.015567635 0.20400001 9528936
0.043056007 0.015567635 0.20400001 9332327
0.043799549 0.015491323 0.20300001 8938082
0.044533681 0.015415011 0.20200001 8412254
-0.010609571 0.018066211 0.223 2697513
-0.0093894256 0.017742153 0.21900001 2894892
-0.0081305569 0.017256068 0.21300001 2829101
-0.006961586 0.016850995 0.208 2829101
-0.0059547075 0.016769981 0.20700002 3026225
-0.004981298 0.016769981 0.20700002 3813688
-0.0040272498 0.016850995 0.208 5587017
-0.0030491378 0.016850995 0.208 8872807
-0.002061069 0.016769981 0.20700002 12094350
-0.0010876594 0.016769981 0.20700002 11764869
-0.00011369775 0.016688967 0.20600002 12553358
0.00085500942 0.016688967 0.20600002 13342102
0.0018237167 0.016688967 0.20600002 13078671
0.0027924238 0.016688967 0.20600002 12814729
0.0037611309 0.016688967 0.20600002 13274512
0.0047298381 0.016688967 0.20600002 13734552
0.0056985454 0.016688967 0.20600002 13602196
0.0066672531 0.016688967 0.20600002 13404815
0.0076359599 0.016688967 0.20600002 12747655
0.0086046671 0.016688967 0.20600002 12682377
0.0095269019 0.016607951 0.20500001 12288133
0.010490905 0.016607951 0.20500001 11630203
0.011399033 0.016526937 0.20400001 11695996
0.012358335 0.016526937 0.20400001 11761273
0.013252354 0.016445924 0.20300001 12353410
0.014206954 0.016445924 0.20300001 12352897
0.015161554 0.016445924 0.20300001 11894143
0.016116155 0.016445924 0.20300001 13145754
0.017070753 0.016445924 0.20300001 12486541
0.01811415 0.016526937 0.20400001 12353412
0.019073451 0.016526937 0.20400001 12748170
0.020032754 0.016526937 0.20400001 12485510
0.020992056 0.016526937 0.20400001 11236215
0.021951359 0.016526937 0.20400001 11697025
0.02291066 0.016526937 0.20400001 12683920
0.023869963 0.016526937 0.20400001 12420235
0.024829265 0.016526937 0.20400001 12552075
0.025788568 0.016526937 0.20400001 12420489
0.026747869 0.016526937 0.20400001 12157317
0.027707173 0.016526937 0.20400001 12354696
0.028666476 0.016526937 0.20400001 12157317
0.029625777 0.016526937 0.20400001 11959684
0.030585077 0.016526937 0.20400001 12025990
0.03154438 0.016526937 0.20400001 12026760
0.032503683 0.016526937 0.20400001 12422031
0.033462986 0.016526937 0.20400001 12159373
0.03442229 0.016526937 0.20400001 12027787
0.035381589 0.016526937 0.20400001 11106685
0.036340892 0.016526937 0.20400001 11041146
0.037300192 0.016526937 0.20400001 10843767
0.038447041 0.016607951 0.20500001 10843765
0.039411049 0.016607951 0.20500001 10120812
0.040375054 0.016607951 0.20500001 10317939
0.041339058 0.016607951 0.20500001 9923694
0.042303063 0.016607951 0.20500001 8938082
0.043267068 0.016607951 0.20500001 8806496
0.044015311 0.016526937 0.20400001 8478045
-0.008168729 0.018343408 0.21400002 2829871
-0.007128932 0.018257691 0.21300001 3158068
-0.0060410076 0.018000539 0.21000001 3092275
-0.005005362 0.017829105 0.208 3815739
-0.0040659732 0.018000539 0.21000001 4407106
-0.0030784565 0.018000539 0.21000001 4535099
-0.0020809826 0.017914822 0.20900001 8215395
-0.0010981681 0.017914822 0.20900001 10516603
-0.00011480161 0.017829105 0.208 10713210
0.00086331042 0.017829105 0.208 10843767
0.0018325697 0.01774339 0.20700002 12224391
0.0028059795 0.01774339 0.20700002 12618379
0.003779389 0.01774339 0.20700002 12420487
0.0047527985 0.01774339 0.20700002 12879754
0.0057262084 0.01774339 0.20700002 13866136
0.0066996184 0.01774339 0.20700002 12418692
0.0076730275 0.01774339 0.20700002 12353412
0.0086464379 0.01774339 0.20700002 11762559
0.0095733739 0.017657673 0.20600002 11564926
0.010542081 0.017657673 0.20600002 11038582
0.011510788 0.017657673 0.20600002 11695742
0.012418916 0.017571956 0.20500001 11958400
0.013317637 0.017486239 0.20400001 12879754
0.014276939 0.017486239 0.20400001 12748682
0.015236243 0.017486239 0.20400001 11894658
0.016195545 0.017486239 0.20400001 11764617
0.017154846 0.017486239 0.20400001 11763590
0.018202944 0.017571956 0.20500001 11630203
0.019166948 0.017571956 0.20500001 11761789
0.020130955 0.017571956 0.20500001 12485510
0.021094957 0.017571956 0.20500001 12091522
0.022058962 0.017571956 0.20500001 11829635
0.023022968 0.017571956 0.20500001 12289932
0.023986973 0.017571956 0.20500001 12289162
0.024950977 0.017571956 0.20500001 12354955
0.025914982 0.017571956 0.20500001 12355209
0.026878987 0.017571956 0.20500001 12289416
0.027842993 0.017571956 0.20500001 12421002
0.028806997 0.017571956 0.20500001 11697279
0.029771002 0.017571956 0.20500001 11894658
0.030735005 0.017571956 0.20500001 11501183
0.031699009 0.017571956 0.20500001 10843767
0.032663014 0.017571956 0.20500001 10777720
0.033627018 0.017571956 0.20500001 11172478
0.034591027 0.017571956 0.20500001 11830408
0.035728469 0.017657673 0.20600002 11567236
0.036697175 0.017657673 0.20600002 11370111
0.037665881 0.017657673 0.20600002 10581365
0.038822137 0.01774339 0.20700002 9660776
0.039795548 0.01774339 0.20700002 9660522
0.040768955 0.01774339 0.20700002 9332327
0.041742366 0.01774339 0.20700002 9530219
0.042715777 0.01774339 0.20700002 8214361
0.043478128 0.017657673 0.20600002 7886680
0.044231072 0.017571956 0.20500001 7295826
-0.0060697743 0.019078476 0.21100001 3881791
-0.0051016188 0.019168897 0.21200001 4013375
-0.0040853354 0.019078476 0.21100001 4210754
-0.003093116 0.019078476 0.21100001 4342083
-0.0020909396 0.018988056 0.21000001 4207931
-0.0011034225 0.018988056 0.21000001 7099480
-0.00011535354 0.018897638 0.20900001 9794677
0.00086746097 0.018897638 0.20900001 11043199
0.0018502757 0.018897638 0.20900001 11567488
0.0028330903 0.018897638 0.20900001 12290951
0.0037976466 0.018807217 0.208 12422024
0.0047757588 0.018807217 0.208 12092289
0.0057538706 0.018807217 0.208 12025731
0.0067319833 0.018807217 0.208 11894658
0.007710095 0.018807217 0.208 11829381
0.0086882077 0.018807217 0.208 12158346
0.0096198469 0.018716799 0.20700002 11500416
0.010593256 0.018716799 0.20700002 11368060
0.011566667 0.018716799 0.20700002 11235961
0.012479495 0.018626381 0.20600002 12288133
0.01338292 0.01853596 0.20500001 12288133
0.014346925 0.01853596 0.20500001 12222338
0.01531093 0.01853596 0.20500001 11828865
0.016274935 0.01853596 0.20500001 12027789
0.017323032 0.018626381 0.20600002 11435140
0.01829174 0.018626381 0.20600002 11631232
0.019353945 0.018716799 0.20700002 11697279
0.020327354 0.018716799 0.20700002 11697277
0.021300763 0.018716799 0.20700002 11894658
0.022274172 0.018716799 0.20700002 11895687
0.023247583 0.018716799 0.20700002 11501443
0.024220992 0.018716799 0.20700002 11698824
0.025194401 0.018716799 0.20700002 11961996
0.026167812 0.018716799 0.20700002 11764615
0.027141221 0.018716799 0.20700002 11764615
0.028114632 0.018716799 0.20700002 11567236
0.029088041 0.018716799 0.20700002 11830662
0.030061452 0.018716799 0.20700002 11699076
0.031034859 0.018716799 0.20700002 11633281
0.032008268 0.018716799 0.20700002 11567488
0.032981679 0.018716799 0.20700002 11304316
0.03395509 0.018716799 0.20700002 11238523
0.034928501 0.018716799 0.20700002 10910330
0.036075346 0.018807217 0.208 10252400
0.037053458 0.018807217 0.208 9594729
0.038031567 0.018807217 0.208 9463913
0.039197229 0.018897638 0.20900001 9464426
0.040180042 0.018897638 0.20900001 8807010
0.041162856 0.018897638 0.20900001 8741217
0.042145673 0.018897638 0.20900001 7754326
0.042922132 0.018807217 0.208 7491924
0.043478128 0.018626381 0.20600002 7098449
-0.0051016188 0.020165818 0.21200001 3948352
-0.0041046971 0.020165818 0.21200001 4210754
-0.003093116 0.020070696 0.21100001 4408133
-0.0020909396 0.019975575 0.21000001 4802891
-0.0011034225 0.019975575 0.21000001 4998730
-0.00011590547 0.019975575 0.21000001 5652548
0.00087161153 0.019975575 0.21000001 7491924
0.0018591286 0.019975575 0.21000001 9924977
0.0028466457 0.019975575 0.21000001 10056302
0.0038159045 0.019880453 0.20900001 10976121
0.0047987192 0.019880453 0.20900001 11501695
0.0057815337 0.019880453 0.20900001 11370109
0.0067643486 0.019880453 0.20900001 11238525
0.0077471626 0.019880453 0.20900001 11764869
0.0087299775 0.019880453 0.20900001 11764869
0.009666319 0.01978533 0.208 11961734
0.010644431 0.01978533 0.208 12289932
0.011622543 0.01978533 0.208 11763588
0.012540076 0.01969021 0.20700002 11697025
0.013448202 0.019595088 0.20600002 11960451
0.01441691 0.019595088 0.20600002 11960451
0.015385618 0.019595088 0.20600002 11698047
0.016354324 0.019595088 0.20600002 11238525
0.017407123 0.01969021 0.20700002 9594733
0.018469328 0.01978533 0.208 10448243
0.01944744 0.01978533 0.208 11105658
0.020425553 0.01978533 0.208 10974326
0.021506567 0.019880453 0.20900001 11829381
0.02248938 0.019880453 0.20900001 12093066
0.023472195 0.019880453 0.20900001 11830410
0.024455011 0.019880453 0.20900001 10712699
0.025437824 0.019880453 0.20900001 10581113
0.02642064 0.019880453 0.20900001 10778492
0.027403453 0.019880453 0.20900001 10778492
0.028386269 0.019880453 0.20900001 10910078
0.029369084 0.019880453 0.20900001 10581113
0.0303519 0.019880453 0.20900001 10317941
0.031334709 0.019880453 0.20900001 10252146
