# .PCD v0.7 - Point Cloud Data file format
VERSION 0.7
FIELDS x y z rgb
SIZE 4 4 4 4
TYPE F F F U
COUNT 1 1 1 1
WIDTH 1121
HEIGHT 1
VIEWPOINT 0 0 0 1 0 0 0
POINTS 1121
DATA ascii
0.015725276 0.0037180067 0.18700001 5119260
0.016604636 0.0037180067 0.18700001 5119774
0.032228712 0.0037975365 0.19100001 5182737
0.03347376 0.0038373009 0.193 5379089
0.034381334 0.0038373009 0.193 5509646
0.035288908 0.0038373009 0.193 6231829
0.036196481 0.0038373009 0.193 8468280
0.037104059 0.0038373009 0.193 11098717
0.038011633 0.0038373009 0.193 12808819
0.03891921 0.0038373009 0.193 12743024
0.039826784 0.0038373009 0.193 12150887
0.040734358 0.0038373009 0.193 12151407
0.041641936 0.0038373009 0.193 13138817
0.04254951 0.0038373009 0.193 13731724
0.043457083 0.0038373009 0.193 13601935
0.044364657 0.0038373009 0.193 13277081
-0.017217414 0.0044744429 0.18200001 3487801
-0.016451465 0.004499028 0.18300001 4864315
-0.015590914 0.004499028 0.18300001 11172732
-0.014730362 0.004499028 0.18300001 12617350
-0.013869813 0.004499028 0.18300001 12154748
-0.013080351 0.004523613 0.18400002 11825270
-0.012215097 0.004523613 0.18400002 12810879
-0.011349845 0.004523613 0.18400002 11428967
-0.010484592 0.004523613 0.18400002 12021104
-0.0096193384 0.004523613 0.18400002 11626344
-0.0088016624 0.0045481971 0.185 11362656
-0.0079317065 0.0045481971 0.185 10506834
-0.0070617511 0.0045481971 0.185 10310486
-0.0061917952 0.0045481971 0.185 11297388
-0.0053218398 0.0045481971 0.185 10442849
-0.0044518844 0.0045481971 0.185 9325651
-0.0035819288 0.0045481971 0.185 9063249
-0.0027266329 0.0045727822 0.186 9919331
-0.001851975 0.0045727822 0.186 8867163
-0.00097731699 0.0045727822 0.186 11301504
-0.00010265913 0.0045727822 0.186 10050405
0.00077199872 0.0045727822 0.186 8403782
0.0016466568 0.0045727822 0.186 8995149
0.0025348703 0.0045973673 0.18700001 9655134
0.0034142304 0.0045973673 0.18700001 5183007
0.0042935908 0.0045973673 0.18700001 5315108
0.0051729511 0.0045973673 0.18700001 5052706
0.006052312 0.0045973673 0.18700001 5382182
0.0069316719 0.0045973673 0.18700001 5250594
0.0078110327 0.0045973673 0.18700001 5119776
0.0086903926 0.0045973673 0.18700001 4988960
0.009569753 0.0045973673 0.18700001 4857374
0.010449113 0.0045973673 0.18700001 4791840
0.011328474 0.0045973673 0.18700001 4661024
0.012207834 0.0045973673 0.18700001 4792610
0.013087194 0.0045973673 0.18700001 4923680
0.013966555 0.0045973673 0.18700001 4792094
0.014845916 0.0045973673 0.18700001 4528920
0.015725276 0.0045973673 0.18700001 4725786
0.016604636 0.0045973673 0.18700001 4594200
0.031080492 0.0049415552 0.20100001 4329481
0.032025687 0.0049415552 0.20100001 4263688
0.032642815 0.0048923856 0.19900002 4263688
0.03324113 0.0048432159 0.19700001 4395528
0.033647198 0.0047694612 0.19400001 4526344
0.034559477 0.0047694612 0.19400001 4789003
0.035288908 0.0047448762 0.193 5117198
0.036196481 0.0047448762 0.193 5707025
0.037104059 0.0047448762 0.193 5902610
0.038011633 0.0047448762 0.193 6756633
0.03891921 0.0047448762 0.193 9189432
0.039826784 0.0047448762 0.193 10900820
0.040734358 0.0047448762 0.193 11296350
0.041641936 0.0047448762 0.193 11034207
0.04254951 0.0047448762 0.193 11625576
0.043457083 0.0047448762 0.193 12678264
0.044364657 0.0047448762 0.193 13669011
-0.018073261 0.0053302911 0.18200001 2764076
-0.017217414 0.0053302911 0.18200001 2763051
-0.016451465 0.0053595784 0.18300001 3612963
-0.015590914 0.0053595784 0.18300001 12817557
-0.014810856 0.0053888657 0.18400002 12881292
-0.013869813 0.0053595784 0.18300001 12419457
-0.013080351 0.0053888657 0.18400002 12154235
-0.012215097 0.0053888657 0.18400002 12810879
-0.011349845 0.0053888657 0.18400002 12152692
-0.010484592 0.0053888657 0.18400002 11955313
-0.0096193384 0.0053888657 0.18400002 11955311
-0.0088016624 0.005418153 0.185 13468548
-0.0079317065 0.005418153 0.185 12152690
-0.0070617511 0.005418153 0.185 10245986
-0.0061917952 0.005418153 0.185 12682639
-0.0053218398 0.005418153 0.185 14656167
-0.0044518844 0.005418153 0.185 10839658
-0.0035819288 0.005418153 0.185 10246751
-0.0027266329 0.0054474403 0.186 10445154
-0.001851975 0.0054474403 0.186 10050919
-0.00097731699 0.0054474403 0.186 12025994
-0.00010265913 0.0054474403 0.186 9196378
0.00077199872 0.0054474403 0.186 10511468
0.0016466568 0.0054474403 0.186 12287369
0.0025348703 0.0054767276 0.18700001 8866643
0.0034142304 0.0054767276 0.18700001 9721692
0.0042935908 0.0054767276 0.18700001 8208713
0.0051729511 0.0054767276 0.18700001 6696757
0.006052312 0.0054767276 0.18700001 5578530
0.0069316719 0.0054767276 0.18700001 5051671
0.0078110327 0.0054767276 0.18700001 5051925
0.0086903926 0.0054767276 0.18700001 5248534
0.009569753 0.0054767276 0.18700001 5577499
0.010449113 0.0054767276 0.18700001 5446429
0.011328474 0.0054767276 0.18700001 5645604
0.012207834 0.0054767276 0.18700001 7883080
0.013087194 0.0054767276 0.18700001 5711911
0.013966555 0.0054767276 0.18700001 5120028
0.014845916 0.0054767276 0.18700001 8277576
0.015725276 0.0054767276 0.18700001 9657433
0.016604636 0.0054767276 0.18700001 7025974
0.017483996 0.0054767276 0.18700001 4789784
0.030285222 0.0059160371 0.20200001 4198410
0.030925861 0.0058574625 0.2 4066824
0.031866353 0.0058574625 0.2 4066824
0.032642815 0.0058281757 0.19900002 4198408
0.03324113 0.0057696006 0.19700001 4198662
0.033647198 0.0056817387 0.19400001 4198662
0.034559477 0.0056817387 0.19400001 4461321
0.035288908 0.0056524514 0.193 4591883
0.036196481 0.0056524514 0.193 5051151
0.037104059 0.0056524514 0.193 5575698
0.038011633 0.0056524514 0.193 5836814
0.03891921 0.0056524514 0.193 6098703
0.039826784 0.0056524514 0.193 6821654
0.040734358 0.0056524514 0.193 8401717
0.041641936 0.0056524514 0.193 11033439
0.04254951 0.0056524514 0.193 11296098
0.043457083 0.0056524514 0.193 12283506
0.044364657 0.0056524514 0.193 14391451
0.045272235 0.0056524514 0.193 11766670
0.046179809 0.0056524514 0.193 4536896
0.047087386 0.0056524514 0.193 4672075
-0.018073261 0.0061861388 0.18200001 3356714
-0.017217414 0.0061861388 0.18200001 1973784
-0.016451465 0.0062201289 0.18300001 3218205
-0.015676109 0.0062541184 0.18400002 10515835
-0.014810856 0.0062541184 0.18400002 12487563
-0.013945605 0.0062541184 0.18400002 13011340
-0.013080351 0.0062541184 0.18400002 12878471
-0.012215097 0.0062541184 0.18400002 13139844
-0.011349845 0.0062541184 0.18400002 15902893
-0.010484592 0.0062541184 0.18400002 16363442
-0.0096193384 0.0062541184 0.18400002 15244963
-0.0088016624 0.006288108 0.185 14455704
-0.0079317065 0.006288108 0.185 12023162
-0.0070617511 0.006288108 0.185 15971773
-0.0061917952 0.006288108 0.185 16764371
-0.0053218398 0.006288108 0.185 16766172
-0.0044518844 0.006288108 0.185 11827328
-0.0035819288 0.006288108 0.185 12288133
-0.0027266329 0.006322098 0.186 11827066
-0.001851975 0.006322098 0.186 10972273
-0.00097731699 0.006322098 0.186 12816280
-0.00010265913 0.006322098 0.186 10513523
0.00077199872 0.006322098 0.186 16763859
0.0016466568 0.006322098 0.186 16763343
0.0025348703 0.0063560875 0.18700001 16763857
0.0034142304 0.0063560875 0.18700001 13341337
0.0042935908 0.0063560875 0.18700001 12552075
0.0051729511 0.0063560875 0.18700001 12947346
0.006052312 0.0063560875 0.18700001 12881299
0.0069316719 0.0063560875 0.18700001 12684690
0.0078110327 0.0063560875 0.18700001 12421002
0.0086903926 0.0063560875 0.18700001 11895428
0.009569753 0.0063560875 0.18700001 11434105
0.010449113 0.0063560875 0.18700001 12946831
0.011328474 0.0063560875 0.18700001 10315113
0.012207834 0.0063560875 0.18700001 10973043
0.013087194 0.0063560875 0.18700001 11170933
0.013966555 0.0063560875 0.18700001 11565691
0.014845916 0.0063560875 0.18700001 10315111
0.015725276 0.0063560875 0.18700001 10379622
0.016604636 0.0063560875 0.18700001 9129819
0.017483996 0.0063560875 0.18700001 12420249
0.018363358 0.0063560875 0.18700001 7552586
0.019242717 0.0063560875 0.18700001 5709603
0.020122077 0.0063560875 0.18700001 10115935
0.021001438 0.0063560875 0.18700001 8142912
0.0218808 0.0063560875 0.18700001 6300706
0.022760158 0.0063560875 0.18700001 8603461
0.023639519 0.0063560875 0.18700001 9919323
0.028104385 0.0067979544 0.2 4461078
0.02904488 0.0067979544 0.2 4198672
0.029985368 0.0067979544 0.2 3935500
0.030461974 0.0066959853 0.19700001 4067340
0.031388361 0.0066959853 0.19700001 3869961
0.032314748 0.0066959853 0.19700001 4001033
0.033072393 0.0066619958 0.19600001 4264203
0.033820637 0.0066280058 0.19500001 4329481
0.034559477 0.0065940162 0.19400001 4459784
0.035288908 0.0065600262 0.193 4523010
0.036196481 0.0065600262 0.193 5640210
0.037104059 0.0065600262 0.193 7681846
0.038011633 0.0065600262 0.193 10115417
0.03891921 0.0065600262 0.193 12745082
0.039826784 0.0065600262 0.193 12021356
0.040734358 0.0065600262 0.193 11889770
0.041641936 0.0065600262 0.193 11231590
0.04254951 0.0065600262 0.193 11823727
0.043457083 0.0065600262 0.193 12021104
0.044364657 0.0065600262 0.193 14984101
0.045272235 0.0065600262 0.193 12096148
0.046179809 0.0065600262 0.193 5129546
0.047087386 0.0065600262 0.193 4540491
-0.018073261 0.0070419875 0.18200001 4604988
-0.017217414 0.0070419875 0.18200001 9671049
-0.016451465 0.0070806798 0.18300001 9273981
-0.015676109 0.007119372 0.18400002 7425357
-0.014810856 0.007119372 0.18400002 9921636
-0.014021395 0.0071580638 0.185 13209233
-0.013151439 0.0071580638 0.185 13274512
-0.012215097 0.007119372 0.18400002 13405069
-0.011349845 0.007119372 0.18400002 14785439
-0.010484592 0.007119372 0.18400002 14653083
-0.0096193384 0.007119372 0.18400002 15179170
-0.0088016624 0.0071580638 0.185 15180197
-0.0079317065 0.0071580638 0.185 14917541
-0.0070617511 0.0071580638 0.185 13405846
-0.0061917952 0.0071580638 0.185 16764373
-0.0053218398 0.0071580638 0.185 16500686
-0.0044518844 0.0071580638 0.185 15577531
-0.0035819288 0.0071580638 0.185 13406100
-0.0027266329 0.0071967561 0.186 13931931
-0.001851975 0.0071967561 0.186 12024961
-0.00097731699 0.0071967561 0.186 13408415
-0.00010265913 0.0071967561 0.186 11764105
0.00077199872 0.0071967561 0.186 16764372
0.0016466568 0.0071967561 0.186 16501199
0.0025348703 0.0072354483 0.18700001 16765142
0.0034142304 0.0072354483 0.18700001 13340307
0.0042935908 0.0072354483 0.18700001 13997724
0.0051729511 0.0072354483 0.18700001 13931931
0.006052312 0.0072354483 0.18700001 13931931
0.0069316719 0.0072354483 0.18700001 13339794
0.0078110327 0.0072354483 0.18700001 12682891
0.0086903926 0.0072354483 0.18700001 15315894
0.009569753 0.0072354483 0.18700001 16368580
0.010449113 0.0072354483 0.18700001 16631241
0.011328474 0.0072354483 0.18700001 12485260
0.012207834 0.0072354483 0.18700001 13537946
0.013087194 0.0072354483 0.18700001 13538198
0.013966555 0.0072354483 0.18700001 13472405
0.014845916 0.0072354483 0.18700001 13208208
0.015725276 0.0072354483 0.18700001 12287365
0.016604636 0.0072354483 0.18700001 12485778
0.017483996 0.0072354483 0.18700001 16766181
0.018363358 0.0072354483 0.18700001 16697813
0.019242717 0.0072354483 0.18700001 11104377
0.020122077 0.0072354483 0.18700001 11432570
0.021001438 0.0072354483 0.18700001 10840171
0.0218808 0.0072354483 0.18700001 10839658
0.022760158 0.0072354483 0.18700001 12221311
0.023639519 0.0072354483 0.18700001 12287106
0.024781115 0.0073128329 0.18900001 12681612
0.025805701 0.0073515251 0.19000001 11563392
0.02683969 0.0073902179 0.19100001 5775407
0.028318757 0.0075449864 0.19500001 4394002
0.029235736 0.0075449864 0.19500001 4196362
0.030307345 0.0075836787 0.19600001 4130569
0.031069696 0.0075449864 0.19500001 3934473
0.031986676 0.0075449864 0.19500001 4066059
0.032734919 0.0075062942 0.19400001 5446683
0.033647198 0.0075062942 0.19400001 7879225
0.034381334 0.0074676014 0.193 10378589
0.035288908 0.0074676014 0.193 11166822
0.036196481 0.0074676014 0.193 13864335
0.037104059 0.0074676014 0.193 12416889
0.038011633 0.0074676014 0.193 12351098
0.03891921 0.0074676014 0.193 11956340
0.039826784 0.0074676014 0.193 11956340
0.040734358 0.0074676014 0.193 12284535
0.041641936 0.0074676014 0.193 13863313
0.04254951 0.0074676014 0.193 14653083
0.043457083 0.0074676014 0.193 16034736
0.044364657 0.0074676014 0.193 15247789
0.045272235 0.0074676014 0.193 10978183
0.046179809 0.0074676014 0.193 4209214
0.047087386 0.0074676014 0.193 4606284
-0.018073261 0.0078978352 0.18200001 2565927
-0.017217414 0.0078978352 0.18200001 2762279
-0.016451465 0.0079412302 0.18300001 2627864
-0.015676109 0.0079846252 0.18400002 6637894
-0.014891349 0.0080280192 0.185 11634305
-0.014097186 0.0080714133 0.186 11500920
-0.013151439 0.0080280192 0.185 11302260
-0.012281483 0.0080280192 0.185 12682116
-0.011411528 0.0080280192 0.185 14325658
-0.010541573 0.0080280192 0.185 15509930
-0.0096716173 0.0080280192 0.185 14719644
-0.0088016624 0.0080280192 0.185 14588058
-0.0079317065 0.0080280192 0.185 14325917
-0.0070617511 0.0080280192 0.185 13800345
-0.0061917952 0.0080280192 0.185 16766686
-0.0053506065 0.0080714133 0.186 16764626
-0.0044759484 0.0080714133 0.186 16764630
-0.0036012908 0.0080714133 0.186 13734552
-0.0027266329 0.0080714133 0.186 13931929
-0.001851975 0.0080714133 0.186 12946831
-0.00097731699 0.0080714133 0.186 12882836
-0.00010265913 0.0080714133 0.186 12948116
0.00077614927 0.0081148082 0.18700001 14591658
0.0016555098 0.0081148082 0.18700001 16764626
0.0025348703 0.0081148082 0.18700001 16764368
0.0034142304 0.0081148082 0.18700001 13996693
0.0042935908 0.0081148082 0.18700001 14260378
0.0051729511 0.0081148082 0.18700001 14195355
0.006052312 0.0081148082 0.18700001 14261148
0.0069316719 0.0081148082 0.18700001 14391710
0.0078110327 0.0081148082 0.18700001 13406098
0.0086903926 0.0081148082 0.18700001 13011340
0.009569753 0.0081148082 0.18700001 16763853
0.010504992 0.0081582032 0.18800001 16764109
0.011389053 0.0081582032 0.18800001 14656427
0.012273116 0.0081582032 0.18800001 13141645
0.01315718 0.0081582032 0.18800001 12878471
0.014041243 0.0081582032 0.18800001 13206923
0.014925306 0.0081582032 0.18800001 13930646
0.015809368 0.0081582032 0.18800001 13602196
0.016693432 0.0081582032 0.18800001 16763347
0.017577494 0.0081582032 0.18800001 16763347
0.018461557 0.0081582032 0.18800001 16367049
0.019345619 0.0081582032 0.18800001 13340569
0.020229682 0.0081582032 0.18800001 14787499
0.021113746 0.0081582032 0.18800001 13866397
0.021997809 0.0081582032 0.18800001 13996954
0.022881871 0.0081582032 0.18800001 14982566
0.023765935 0.0081582032 0.18800001 16167356
0.024781115 0.0082015982 0.18900001 14788795
0.025805701 0.0082449932 0.19000001 16770803
0.02683969 0.0082883872 0.19100001 16700125
0.028028307 0.0083751762 0.193 10841203
0.028935881 0.0083751762 0.193 11364719
0.029998086 0.0084185712 0.19400001 11036267
0.030910363 0.0084185712 0.19400001 11366515
0.03182264 0.0084185712 0.19400001 10643306
0.032566182 0.0083751762 0.193 9393493
0.03347376 0.0083751762 0.193 13209233
0.034381334 0.0083751762 0.193 13143442
0.035288908 0.0083751762 0.193 12812426
0.036196481 0.0083751762 0.193 15903666
0.037104059 0.0083751762 0.193 12218742
0.038011633 0.0083751762 0.193 13337223
0.03891921 0.0083751762 0.193 13139590
0.039826784 0.0083751762 0.193 13271176
0.040734358 0.0083751762 0.193 13731470
0.041641936 0.0083751762 0.193 14850208
0.04254951 0.0083751762 0.193 16100529
0.043457083 0.0083751762 0.193 15574701
0.044364657 0.0083751762 0.193 14000034
0.045272235 0.0083751762 0.193 7492702
0.046179809 0.0083751762 0.193 4472134
0.047087386 0.0083751762 0.193 4868686
-0.016900957 0.0090422668 0.18800001 3089699
-0.01610209 0.009090364 0.18900001 6507593
-0.01513283 0.0090422668 0.18800001 7359818
-0.014248769 0.0090422668 0.18800001 9199710
-0.013222528 0.0089460723 0.186 10316907
-0.01234787 0.0089460723 0.186 11170933
-0.011473212 0.0089460723 0.186 11696248
-0.010598554 0.0089460723 0.186 11958904
-0.0097238962 0.0089460723 0.186 12682114
-0.008849239 0.0089460723 0.186 13470860
-0.0079745799 0.0089460723 0.186 13997206
-0.0070999227 0.0089460723 0.186 14325917
-0.0062252646 0.0089460723 0.186 13668759
-0.0053506065 0.0089460723 0.186 14129310
-0.0044759484 0.0089460723 0.186 14129308
-0.0036012908 0.0089460723 0.186 14260894
-0.0027266329 0.0089460723 0.186 13932444
-0.001851975 0.0089460723 0.186 12487311
-0.00097731699 0.0089460723 0.186 12553104
-0.00010265913 0.0089460723 0.186 13210005
0.00077614927 0.0089941695 0.18700001 13406100
0.0016555098 0.0089941695 0.18700001 13799573
0.0025348703 0.0089941695 0.18700001 13996693
0.0034142304 0.0089941695 0.18700001 14589341
0.0043165511 0.0090422668 0.18800001 13865618
0.0052006142 0.0090422668 0.18800001 13076874
0.0060846773 0.0090422668 0.18800001 13537425
0.0069687399 0.0090422668 0.18800001 14195868
0.007852803 0.0090422668 0.18800001 14327454
0.0087368656 0.0090422668 0.18800001 14195868
0.0096209282 0.0090422668 0.18800001 15906232
0.010504992 0.0090422668 0.18800001 16764625
0.011389053 0.0090422668 0.18800001 16103098
0.012273116 0.0090422668 0.18800001 14326687
0.01315718 0.0090422668 0.18800001 13931929
0.014041243 0.0090422668 0.18800001 13339792
0.014925306 0.0090422668 0.18800001 14325658
0.015809368 0.0090422668 0.18800001 14128538
0.016693432 0.0090422668 0.18800001 15708088
0.017577494 0.0090422668 0.18800001 14589607
0.018461557 0.0090422668 0.18800001 13404050
0.019345619 0.0090422668 0.18800001 13339024
0.020229682 0.0090422668 0.18800001 12220289
0.021113746 0.0090422668 0.18800001 12154750
0.021997809 0.0090422668 0.18800001 12350846
0.022881871 0.0090422668 0.18800001 13863315
0.023892349 0.009090364 0.18900001 15115951
0.024781115 0.009090364 0.18900001 15977170
0.025805701 0.0091384612 0.19000001 16776187
0.02683969 0.0091865584 0.19100001 16775931
0.027883084 0.0092346547 0.192 16767455
0.028935881 0.0092827519 0.193 13864853
0.029843457 0.0092827519 0.193 12812678
0.030751033 0.0092827519 0.193 12879243
0.031658608 0.0092827519 0.193 12945549
0.032566182 0.0092827519 0.193 10774640
0.03347376 0.0092827519 0.193 16631500
0.034381334 0.0092827519 0.193 15249334
0.035106063 0.0092346547 0.192 16761805
0.036008935 0.0092346547 0.192 16762829
0.036911808 0.0092346547 0.192 15113377
0.03781468 0.0092346547 0.192 15376549
0.038717553 0.0092346547 0.192 15244963
0.039620429 0.0092346547 0.192 15244963
0.040523302 0.0092346547 0.192 15244709
0.041641936 0.0092827519 0.193 15639724
0.04254951 0.0092827519 0.193 14983334
0.043457083 0.0092827519 0.193 15052207
0.044364657 0.0092827519 0.193 10646136
0.045272235 0.0092827519 0.193 3873568
0.046179809 0.0092827519 0.193 3550003
0.047087386 0.0092827519 0.193 3292223
-0.016698465 0.010348726 0.19600001 5915972
-0.015454805 0.010137527 0.192 6900550
-0.014324561 0.0099791288 0.18900001 7490888
-0.013364706 0.0099263294 0.18800001 9594983
-0.012414256 0.009873529 0.18700001 10581365
-0.011534896 0.009873529 0.18700001 11041144
-0.010655536 0.009873529 0.18700001 11106164
-0.009776175 0.009873529 0.18700001 11500152
-0.0088968156 0.009873529 0.18700001 11499639
-0.0080174543 0.009873529 0.18700001 12156285
-0.0071380944 0.009873529 0.18700001 12419457
-0.0062587336 0.009873529 0.18700001 12616582
-0.0053793732 0.009873529 0.18700001 13142926
-0.0045000128 0.009873529 0.18700001 13209233
-0.0036206525 0.009873529 0.18700001 13210003
-0.0027412924 0.009873529 0.18700001 13013909
-0.0018619319 0.009873529 0.18700001 11041664
-0.00098257139 0.009873529 0.18700001 11829894
-0.00010321107 0.009873529 0.18700001 12091524
0.00077614927 0.009873529 0.18700001 12288133
0.0016555098 0.009873529 0.18700001 12747657
0.0025348703 0.009873529 0.18700001 13471378
0.0034324883 0.0099263294 0.18800001 12945288
0.0043165511 0.0099263294 0.18800001 12880008
0.0052006142 0.0099263294 0.18800001 12288385
0.0060846773 0.0099263294 0.18800001 12222338
0.0070058075 0.0099791288 0.18900001 12551303
0.0078945737 0.0099791288 0.18900001 12288385
0.0087833386 0.0099791288 0.18900001 13274766
0.0096721034 0.0099791288 0.18900001 12681346
0.010560869 0.0099791288 0.18900001 12615553
0.011449634 0.0099791288 0.18900001 13141897
0.012338399 0.0099791288 0.18900001 14062999
0.013227165 0.0099791288 0.18900001 12812930
0.014115931 0.0099791288 0.18900001 13141895
0.015004696 0.0099791288 0.18900001 14260378
0.015893461 0.0099791288 0.18900001 12680833
0.016782226 0.0099791288 0.18900001 12285305
0.017670993 0.0099791288 0.18900001 14916001
0.018559758 0.0099791288 0.18900001 14192278
0.019448522 0.0099791288 0.18900001 13666704
0.020337287 0.0099791288 0.18900001 13206155
0.021226054 0.0099791288 0.18900001 12087672
0.022114819 0.0099791288 0.18900001 12547453
0.023003584 0.0099791288 0.18900001 15244968
0.023892349 0.0099791288 0.18900001 14195362
0.024781115 0.0099791288 0.18900001 15780818
0.025805701 0.010031928 0.19000001 16774135
0.02683969 0.010084728 0.19100001 16775675
0.027883084 0.010137527 0.192 16105676
0.028785953 0.010137527 0.192 14587554
0.029688828 0.010137527 0.192 15377324
0.0305917 0.010137527 0.192 14062234
0.031494573 0.010137527 0.192 13931931
0.032397445 0.010137527 0.192 12551823
0.033300318 0.010137527 0.192 16764633
0.03420319 0.010137527 0.192 16302537
0.035106063 0.010137527 0.192 16762830
0.036008935 0.010137527 0.192 16762060
0.036911808 0.010137527 0.192 14323607
0.03781468 0.010137527 0.192 15244963
0.038717553 0.010137527 0.192 14784669
0.039620429 0.010137527 0.192 15047841
0.040523302 0.010137527 0.192 15575471
0.041641936 0.010190327 0.193 15774133
0.04254951 0.010190327 0.193 14987960
0.043457083 0.010190327 0.193 12230311
0.044364657 0.010190327 0.193 10719639
0.045272235 0.010190327 0.193 10521482
0.046179809 0.010190327 0.193 6903896
0.047087386 0.010190327 0.193 4210754
-0.017550427 0.01184543 0.20600002 5653059
-0.015776781 0.011270409 0.19600001 6439747
-0.014551934 0.0110404 0.192 7886678
-0.013435795 0.010867895 0.18900001 8279639
-0.012480643 0.010810392 0.18800001 9594983
-0.01159658 0.010810392 0.18800001 10516085
-0.010712517 0.010810392 0.18800001 10580595
-0.0098284548 0.010810392 0.18800001 11303289
-0.0089443922 0.010810392 0.18800001 12092289
-0.0080603287 0.010810392 0.18800001 12158082
-0.0071762661 0.010810392 0.18800001 11762811
-0.006292203 0.010810392 0.18800001 11762041
-0.0054081399 0.010810392 0.18800001 12222338
-0.0045240773 0.010810392 0.18800001 12157315
-0.0036400142 0.010810392 0.18800001 12486280
-0.0027559516 0.010810392 0.18800001 12159373
-0.0018718888 0.010810392 0.18800001 10647421
-0.0009878258 0.010810392 0.18800001 11106687
-0.000103763 0.010810392 0.18800001 11566209
0.00078029983 0.010810392 0.18800001 12157830
0.0016643627 0.010810392 0.18800001 12355209
0.0025484257 0.010810392 0.18800001 12684690
0.0034324883 0.010810392 0.18800001 10908281
0.0043395115 0.010867895 0.18900001 11499900
0.0052282768 0.010867895 0.18900001 11631484
0.0061170426 0.010867895 0.18900001 11959936
0.0070058075 0.010867895 0.18900001 12091522
0.0078945737 0.010867895 0.18900001 12288131
0.0087833386 0.010867895 0.18900001 12748168
0.0096721034 0.010867895 0.18900001 13011081
0.010560869 0.010867895 0.18900001 12879495
0.011449634 0.010867895 0.18900001 12813702
0.012403682 0.010925396 0.19000001 12747909
0.01329715 0.010925396 0.19000001 12220795
0.014190618 0.010925396 0.19000001 12418174
0.015084086 0.010925396 0.19000001 12155002
0.015977552 0.010925396 0.19000001 12352381
0.016871022 0.010925396 0.19000001 12220282
0.017670993 0.010867895 0.18900001 13141384
0.018559758 0.010867895 0.18900001 13470349
0.019448522 0.010867895 0.18900001 12944518
0.020337287 0.010867895 0.18900001 13010311
0.021226054 0.010867895 0.18900001 13207177
0.022231828 0.010925396 0.19000001 13206407
0.023125295 0.010925396 0.19000001 13402762
0.024018764 0.010925396 0.19000001 14128027
0.024912233 0.010925396 0.19000001 16236742
0.025805701 0.010925396 0.19000001 16774644
0.02683969 0.010982899 0.19100001 16773370
0.027737861 0.010982899 0.19100001 13997996
0.028636029 0.010982899 0.19100001 13799071
0.029688828 0.0110404 0.192 16366535
0.0305917 0.0110404 0.192 16562629
0.031494573 0.0110404 0.192 13207188
0.032397445 0.0110404 0.192 13077399
0.033300318 0.0110404 0.192 16765664
0.03420319 0.0110404 0.192 16763347
0.035106063 0.0110404 0.192 16764372
0.036008935 0.0110404 0.192 16761801
0.036911808 0.0110404 0.192 13535118
0.03781468 0.0110404 0.192 14784669
0.038717553 0.0110404 0.192 14588060
0.039620429 0.0110404 0.192 12550530
0.040523302 0.0110404 0.192 13670556
0.041426174 0.0110404 0.192 9394790
-0.018061604 0.013187364 0.21200001 5455421
-0.017064681 0.013187364 0.21200001 6243138
-0.0148551 0.012192091 0.19600001 6966091
-0.013435795 0.011756659 0.18900001 8148566
-0.012547029 0.011756659 0.18900001 9661292
-0.011658264 0.011756659 0.18900001 10713464
-0.010769499 0.011756659 0.18900001 10450292
-0.0098807337 0.011756659 0.18900001 11238525
-0.0089919688 0.011756659 0.18900001 12157828
-0.008103203 0.011756659 0.18900001 12618379
-0.0072144377 0.011756659 0.18900001 12486793
-0.0063256719 0.011756659 0.18900001 12289414
-0.0054369066 0.011756659 0.18900001 12158082
-0.0045481413 0.011756659 0.18900001 12158852
-0.0036593762 0.011756659 0.18900001 11831432
-0.0027706109 0.011756659 0.18900001 10057081
-0.0018818455 0.011756659 0.18900001 10846083
-0.0009930802 0.011756659 0.18900001 11304066
-0.00010431492 0.011756659 0.18900001 10974587
0.00078445039 0.011756659 0.18900001 11566463
0.0016732158 0.011756659 0.18900001 11566463
0.0025619811 0.011756659 0.18900001 11107455
0.0034507464 0.011756659 0.18900001 11107455
0.0043624719 0.011818864 0.19000001 11368830
0.0052559399 0.011818864 0.19000001 12091783
0.0061494079 0.011818864 0.19000001 11959936
0.0070428755 0.011818864 0.19000001 12222338
0.0079363436 0.011818864 0.19000001 12353924
0.0088298116 0.011818864 0.19000001 12222338
0.0097232787 0.011818864 0.19000001 12156031
0.010616747 0.011818864 0.19000001 12287617
0.011510214 0.011818864 0.19000001 12221311
0.012403682 0.011818864 0.19000001 11892346
0.01329715 0.011818864 0.19000001 11760760
0.014265305 0.011881068 0.19100001 11958139
0.015163477 0.011881068 0.19100001 12023932
0.016061645 0.011881068 0.19100001 11958139
0.016959816 0.011881068 0.19100001 11563896
0.01776449 0.011818864 0.19000001 11892861
0.018657958 0.011818864 0.19000001 12156033
0.019551424 0.011818864 0.19000001 12353412
0.020444892 0.011818864 0.19000001 12814215
0.02133836 0.011818864 0.19000001 12879495
0.022348838 0.011881068 0.19100001 13274253
0.023247007 0.011881068 0.19100001 13141897
0.024145178 0.011881068 0.19100001 13996952
0.02504335 0.011881068 0.19100001 14458275
0.025941519 0.011881068 0.19100001 14655400
0.02683969 0.011881068 0.19100001 16299455
0.027737861 0.011881068 0.19100001 14062495
0.028785953 0.011943272 0.192 15972039
0.029688828 0.011943272 0.192 16772862
0.0305917 0.011943272 0.192 16765154
0.031494573 0.011943272 0.192 14262455
0.032397445 0.011943272 0.192 16302287
0.033300318 0.011943272 0.192 12617618
0.03420319 0.011943272 0.192 12287879
0.035106063 0.011943272 0.192 14326689
0.036008935 0.011943272 0.192 14326689
0.036911808 0.011943272 0.192 13076622
0.037617732 0.011881068 0.19100001 13143440
0.038515903 0.011881068 0.19100001 12882321
0.039414074 0.011881068 0.19100001 12358805
-0.017306162 0.014385006 0.215 6309444
-0.015991969 0.014117379 0.21100001 6637896
-0.012613416 0.012712331 0.19000001 9924977
-0.011719949 0.012712331 0.19000001 9991024
-0.010826481 0.012712331 0.19000001 10516855
-0.0099330125 0.012712331 0.19000001 10581878
-0.0090395454 0.012712331 0.19000001 11173502
-0.0081460774 0.012712331 0.19000001 11567236
-0.0072526094 0.012712331 0.19000001 12290445
-0.0063591413 0.012712331 0.19000001 12619664
-0.0054656737 0.012712331 0.19000001 12422285
-0.0045722057 0.012712331 0.19000001 12357006
-0.0036787379 0.012712331 0.19000001 9726315
-0.0027852703 0.012712331 0.19000001 10319224
-0.0018918024 0.012712331 0.19000001 11107972
-0.00099833461 0.012712331 0.19000001 11040380
-0.00010486686 0.012712331 0.19000001 10843001
0.00078860088 0.012712331 0.19000001 11039867
0.0016820688 0.012712331 0.19000001 10909308
0.0025755367 0.012712331 0.19000001 11042177
0.0034690043 0.012712331 0.19000001 11173248
0.0043854327 0.012779239 0.19100001 11697795
0.005283603 0.012779239 0.19100001 11895174
0.0061817733 0.012779239 0.19100001 12157830
0.0070799435 0.012779239 0.19100001 12486280
0.0079781143 0.012779239 0.19100001 12486280
0.0088762837 0.012779239 0.19100001 12420487
0.0097744539 0.012779239 0.19100001 12354696
0.010672624 0.012779239 0.19100001 12157063
0.011570795 0.012779239 0.19100001 12420489
0.012468965 0.012779239 0.19100001 11826814
0.013367135 0.012779239 0.19100001 11892607
0.014339992 0.012846145 0.192 12353158
0.015242865 0.012846145 0.192 12221572
0.016145736 0.012846145 0.192 12484744
0.01704861 0.012846145 0.192 12486028
0.017857987 0.012779239 0.19100001 12354442
0.018756157 0.012779239 0.19100001 11893891
0.019654326 0.012779239 0.19100001 11894145
0.020552497 0.012779239 0.19100001 11959936
0.021450669 0.012779239 0.19100001 12288131
0.022465847 0.012846145 0.192 12682375
0.023368718 0.012846145 0.192 12682375
0.024271591 0.012846145 0.192 12221824
0.025174465 0.012846145 0.192 12484485
0.026077338 0.012846145 0.192 12945036
0.02698021 0.012846145 0.192 13207438
0.027883084 0.012846145 0.192 13339024
0.028785953 0.012846145 0.192 12353160
0.029688828 0.012846145 0.192 12024195
0.0305917 0.012846145 0.192 11892609
0.031494573 0.012846145 0.192 11366265
0.032397445 0.012846145 0.192 11300984
0.033300318 0.012846145 0.192 11893121
0.03420319 0.012846145 0.192 12156293
0.035106063 0.012846145 0.192 12156547
0.036008935 0.012846145 0.192 11630201
0.036911808 0.012846145 0.192 11630971
0.037617732 0.012779239 0.19100001 11963531
0.038515903 0.012779239 0.19100001 8742504
-0.017386656 0.015467646 0.21600001 6441030
-0.016295135 0.015396035 0.215 6308931
-0.014786483 0.01489477 0.208 6373443
-0.012613416 0.0136058 0.19000001 9399151
-0.011781632 0.013677409 0.19100001 9464940
-0.010883463 0.013677409 0.19100001 10911613
-0.0099852914 0.013677409 0.19100001 10845820
-0.009087122 0.013677409 0.19100001 10780027
-0.0081889508 0.013677409 0.19100001 10844796
-0.007290781 0.013677409 0.19100001 11371140
-0.0063926107 0.013677409 0.19100001 11568006
-0.0054944404 0.013677409 0.19100001 11699846
-0.0045962702 0.013677409 0.19100001 11501183
-0.0036787379 0.0136058 0.19000001 11040632
-0.0027852703 0.0136058 0.19000001 10382962
-0.0018918024 0.0136058 0.19000001 10382448
-0.001003589 0.013677409 0.19100001 10447982
-0.00010541879 0.013677409 0.19100001 10776947
0.00079275144 0.013677409 0.19100001 10777206
0.0016909218 0.013677409 0.19100001 10977154
0.0025890921 0.013677409 0.19100001 11107968
0.0034872622 0.013677409 0.19100001 12027787
0.0044083926 0.013749017 0.192 11960967
0.0053112651 0.013749017 0.192 12224139
0.0062141381 0.013749017 0.192 12158346
0.0071170107 0.013749017 0.192 12027014
0.0080198841 0.013749017 0.192 12158600
0.0089227557 0.013749017 0.192 10974326
0.0098256283 0.013749017 0.192 10579314
0.010728502 0.013749017 0.192 12289162
0.011631373 0.013749017 0.192 12354955
0.012534246 0.013749017 0.192 12289162
0.013437119 0.013749017 0.192 11762305
0.01441468 0.013820628 0.193 11499133
0.015322255 0.013820628 0.193 11696512
0.016229829 0.013820628 0.193 12486028
0.017137405 0.013820628 0.193 12157576
0.017951483 0.013749017 0.192 12026244
0.018854355 0.013749017 0.192 12947346
0.019757228 0.013749017 0.192 11434107
0.020660101 0.013749017 0.192 11565180
0.021562973 0.013749017 0.192 12485510
0.022465847 0.013749017 0.192 12353924
0.023368718 0.013749017 0.192 11695994
0.024271591 0.013749017 0.192 11695994
0.025174465 0.013749017 0.192 11563894
0.026077338 0.013749017 0.192 11695482
0.02698021 0.013749017 0.192 12024447
0.027883084 0.013749017 0.192 11761275
0.028785953 0.013749017 0.192 11432824
0.029688828 0.013749017 0.192 11761789
0.0305917 0.013749017 0.192 12156547
0.031494573 0.013749017 0.192 11827582
0.032397445 0.013749017 0.192 11827582
0.033300318 0.013749017 0.192 11894145
0.03420319 0.013749017 0.192 12157317
0.035106063 0.013749017 0.192 11828865
0.036008935 0.013749017 0.192 11699074
0.036911808 0.013749017 0.192 11307146
0.037617732 0.013677409 0.19100001 4401965
-0.017547645 0.016636001 0.21800001 5915968
-0.016446717 0.01655969 0.21700001 6441028
-0.012812574 0.014728203 0.193 8216160
-0.011781632 0.01457558 0.19100001 9597813
-0.010940443 0.014651891 0.192 8873575
-0.01003757 0.014651891 0.192 10386042
-0.0091346977 0.014651891 0.192 10780286
-0.0082318243 0.014651891 0.192 10911359
-0.0073289522 0.014651891 0.192 10844796
-0.0064260792 0.014651891 0.192 10975869
-0.0055232067 0.014651891 0.192 10910330
-0.0045962702 0.01457558 0.19100001 11172732
-0.0036980996 0.01457558 0.19100001 11238011
-0.0027999296 0.01457558 0.19100001 10711413
-0.0019017593 0.01457558 0.19100001 10843253
-0.0010088434 0.014651891 0.192 11499898
-0.00010597071 0.014651891 0.192 12684174
0.00079690194 0.014651891 0.192 12356752
0.0016997746 0.014651891 0.192 12029072
0.0026026473 0.014651891 0.192 11896971
0.0035055198 0.014651891 0.192 11961221
0.004431353 0.014728203 0.193 11894658
0.0053389282 0.014728203 0.193 11959938
0.0062465039 0.014728203 0.193 11828865
0.0071540787 0.014728203 0.193 11434107
0.0080616539 0.014728203 0.193 11368314
0.0089692287 0.014728203 0.193 10973556
0.0098768035 0.014728203 0.193 11038836
0.010784379 0.014728203 0.193 11104629
0.011691954 0.014728203 0.193 12025990
0.012599529 0.014728203 0.193 12420748
0.013507104 0.014728203 0.193 11565439
0.01441468 0.014728203 0.193 10775923
0.015322255 0.014728203 0.193 11104888
0.016313922 0.014804515 0.19400001 11303037
0.017226201 0.014804515 0.19400001 11763588
0.01804498 0.014728203 0.193 12354955
0.018952556 0.014728203 0.193 12026760
0.01986013 0.014728203 0.193 11500670
0.020767706 0.014728203 0.193 11368314
0.021675281 0.014728203 0.193 11959936
0.022582857 0.014728203 0.193 12223108
0.023490431 0.014728203 0.193 12156545
0.024398006 0.014728203 0.193 11827580
0.025305582 0.014728203 0.193 11893373
0.026213158 0.014728203 0.193 11827582
0.027120734 0.014728203 0.193 11432824
0.028028307 0.014728203 0.193 11170422
0.028935881 0.014728203 0.193 11170935
0.029843457 0.014728203 0.193 11565693
0.030751033 0.014728203 0.193 12026244
0.031658608 0.014728203 0.193 11565439
0.032397445 0.014651891 0.192 10775923
0.033300318 0.014651891 0.192 10974074
0.03420319 0.014651891 0.192 11172478
0.035106063 0.014651891 0.192 12161428
0.036008935 0.014651891 0.192 7490902
0.036911808 0.014651891 0.192 3021088
-0.017708633 0.017823167 0.22000001 5323833
-0.016598301 0.017742153 0.21900001 5980479
-0.011843315 0.015554764 0.192 9006446
-0.010997425 0.015635779 0.193 9401200
-0.010089849 0.015635779 0.193 10386812
-0.0091822743 0.015635779 0.193 10583421
-0.0082746986 0.015635779 0.193 10254456
-0.0073671238 0.015635779 0.193 10714493
-0.0064595486 0.015635779 0.193 11042429
-0.0055519734 0.015635779 0.193 11305599
-0.0046203341 0.015554764 0.192 11370879
-0.0037174614 0.015554764 0.192 11501695
-0.0028145888 0.015554764 0.192 10777972
-0.0019117161 0.015554764 0.192 10909560
-0.0010140978 0.015635779 0.193 11501183
-0.00010652265 0.015635779 0.193 12093320
0.00080105243 0.015635779 0.193 11962766
0.0017086277 0.015635779 0.193 11832463
0.0026162029 0.015635779 0.193 11699592
0.0035237779 0.015635779 0.193 11633283
0.0044543133 0.015716793 0.19400001 11895428
0.0053665913 0.015716793 0.19400001 11434877
0.0062788692 0.015716793 0.19400001 11828865
0.0071911463 0.015716793 0.19400001 11565693
0.0081034247 0.015716793 0.19400001 11236728
0.0090157017 0.015716793 0.19400001 11038836
0.0099279787 0.015716793 0.19400001 11367031
0.010840257 0.015716793 0.19400001 11170422
0.011752534 0.015716793 0.19400001 11828611
0.012664812 0.015716793 0.19400001 12157576
0.01357709 0.015716793 0.19400001 11433340
0.014489368 0.015716793 0.19400001 10776177
0.015401646 0.015716793 0.19400001 10973556
0.016398015 0.015797807 0.19500001 11105142
0.017314995 0.015797807 0.19500001 10908533
0.018138478 0.015716793 0.19400001 10908533
0.019050756 0.015716793 0.19400001 11105912
0.019963032 0.015716793 0.19400001 11040632
0.020875311 0.015716793 0.19400001 11435390
0.021787588 0.015716793 0.19400001 11566463
0.022699866 0.015716793 0.19400001 11828865
0.023612143 0.015716793 0.19400001 11828865
0.02452442 0.015716793 0.19400001 11960451
0.025436699 0.015716793 0.19400001 11828865
0.026348976 0.015716793 0.19400001 11697279
0.027261255 0.015716793 0.19400001 11368314
0.028173532 0.015716793 0.19400001 10908279
0.029085808 0.015716793 0.19400001 10908533
0.029998086 0.015716793 0.19400001 11369084
0.030751033 0.015635779 0.193 11698562
0.031658608 0.015635779 0.193 11369857
0.032566182 0.015635779 0.193 10317941
0.03347376 0.015635779 0.193 10648704
0.03420319 0.015554764 0.192 8281448
0.035106063 0.015554764 0.192 3217956
0.036008935 0.015554764 0.192 2497311
-0.017789125 0.018943425 0.22100002 5851210
-0.016674092 0.018857708 0.22000001 5455167
-0.011054406 0.01662907 0.19400001 9205106
-0.010194408 0.016714787 0.19500001 9928057
-0.0092774276 0.016714787 0.19500001 9993337
-0.0083604474 0.016714787 0.19500001 9926774
-0.0074434676 0.016714787 0.19500001 9729395
-0.006493018 0.01662907 0.19400001 10386042
-0.00558074 0.01662907 0.19400001 10780540
-0.0046443981 0.016543353 0.193 10647671
-0.0037368231 0.016543353 0.193 10976123
-0.0028145888 0.016457636 0.192 11502467
-0.0019117161 0.016457636 0.192 11567490
-0.0010193522 0.01662907 0.19400001 11501697
-0.00010707458 0.01662907 0.19400001 11568006
0.00080520299 0.01662907 0.19400001 11569804
0.0017174807 0.01662907 0.19400001 10911363
0.0026297583 0.01662907 0.19400001 11041662
0.0035420358 0.01662907 0.19400001 11041916
0.0044772737 0.016714787 0.19500001 11172732
0.0053942539 0.016714787 0.19500001 10909560
0.0063112346 0.016714787 0.19500001 10843253
0.0072282143 0.016714787 0.19500001 11434877
0.0081451945 0.016714787 0.19500001 12157830
0.0090621747 0.016714787 0.19500001 11630973
0.009979154 0.016714787 0.19500001 11302008
0.010896134 0.016714787 0.19500001 11170168
0.011813114 0.016714787 0.19500001 10578544
0.012730094 0.016714787 0.19500001 11433855
0.013647075 0.016714787 0.19500001 11565693
0.014564055 0.016714787 0.19500001 11039349
0.015481035 0.016714787 0.19500001 11039349
0.016482107 0.016800504 0.19600001 10907763
0.017403791 0.016800504 0.19600001 10908533
0.018231975 0.016714787 0.19500001 10908533
0.019148955 0.016714787 0.19500001 10843253
0.020065935 0.016714787 0.19500001 11303804
0.020982916 0.016714787 0.19500001 11040632
0.021899896 0.016714787 0.19500001 10974585
0.022816876 0.016714787 0.19500001 11697795
0.023733856 0.016714787 0.19500001 11697795
0.024650836 0.016714787 0.19500001 11960967
0.025567817 0.016714787 0.19500001 11500416
0.026484797 0.016714787 0.19500001 10447212
0.027401777 0.016714787 0.19500001 11105142
0.028318757 0.016714787 0.19500001 11303291
0.029235736 0.016714787 0.19500001 11040632
0.030152716 0.016714787 0.19500001 10711667
0.030910363 0.01662907 0.19400001 10646388
0.03182264 0.01662907 0.19400001 10844798
0.032566182 0.016543353 0.193 9793655
0.03347376 0.016543353 0.193 5322818
-0.01786962 0.02007309 0.22200002 2302500
-0.016825674 0.02007309 0.22200002 4799552
-0.011225351 0.017812606 0.19700001 9336694
-0.010298965 0.017812606 0.19700001 9270897
-0.0093725808 0.017812606 0.19700001 9796471
-0.0084461952 0.017812606 0.19700001 10189946
-0.0075198109 0.017812606 0.19700001 10058360
-0.0065599564 0.017722186 0.19600001 10189946
-0.0056095067 0.017631767 0.19500001 10386812
-0.0046684626 0.017541347 0.19400001 10056563
-0.0037368231 0.017450929 0.193 10384245
-0.0028292481 0.017450929 0.193 10975869
-0.001921673 0.017450929 0.193 11238271
-0.0010193522 0.017541347 0.19400001 10712699
-0.00010762651 0.017631767 0.19500001 10385532
0.00080935354 0.017631767 0.19500001 11635859
0.0017263338 0.017631767 0.19500001 10319739
0.0026433137 0.017631767 0.19500001 10384247
0.0035785518 0.017722186 0.19600001 10186355
0.0045002345 0.017722186 0.19600001 10317941
0.005421917 0.017722186 0.19600001 10581111
0.0063435999 0.017722186 0.19600001 10777720
0.0072652819 0.017722186 0.19600001 10842999
0.0081869652 0.017722186 0.19600001 11236728
0.0091086468 0.017722186 0.19600001 12026244
0.010030329 0.017722186 0.19600001 11697279
0.010952013 0.017722186 0.19600001 11499133
0.011873694 0.017722186 0.19600001 10381937
0.012795377 0.017722186 0.19600001 10579316
0.013787045 0.017812606 0.19700001 11697795
0.01471343 0.017812606 0.19700001 11961221
0.015639815 0.017812606 0.19700001 11105912
0.0165662 0.017812606 0.19700001 11303289
0.017492585 0.017812606 0.19700001 12158598
0.018325472 0.017722186 0.19600001 11764353
0.019247156 0.017722186 0.19600001 11435388
0.020168837 0.017722186 0.19600001 11238011
0.021090521 0.017722186 0.19600001 10777460
0.022012204 0.017722186 0.19600001 10974585
0.022933885 0.017722186 0.19600001 11435136
0.023855567 0.017722186 0.19600001 11500929
0.02477725 0.017722186 0.19600001 11303550
0.025698934 0.017722186 0.19600001 11369597
0.026620617 0.017722186 0.19600001 11632769
0.027542299 0.017722186 0.19600001 11238525
0.028463982 0.017722186 0.19600001 10778744
0.029235736 0.017631767 0.19500001 10713464
0.030152716 0.017631767 0.19500001 10450292
0.031069696 0.017631767 0.19500001 9859188
0.03182264 0.017541347 0.19400001 6637906
-0.01786962 0.021117037 0.22200002 3750973
-0.016901465 0.021212157 0.223 3947584
-0.015994994 0.021402402 0.22500001 4209214
-0.011795166 0.01969021 0.20700002 6376269
-0.010455802 0.019024355 0.2 9074036
-0.0095153106 0.019024355 0.2 9534071
-0.0085319439 0.018929236 0.19900002 9927546
-0.0075961542 0.018929236 0.19900002 10059132
-0.0066268947 0.018834114 0.19800001 10124155
-0.0056382739 0.018643869 0.19600001 9860983
-0.0046684626 0.018453626 0.19400001 9597298
-0.0037368231 0.018358504 0.193 8938598
-0.0028292481 0.018358504 0.193 9332327
-0.001921673 0.018358504 0.193 9398120
-0.0010246066 0.018548748 0.19500001 9924464
-0.00010817844 0.018643869 0.19600001 9992571
0.0008135041 0.018643869 0.19600001 9465714
0.0017351868 0.018643869 0.19600001 9793393
0.0026704248 0.018738991 0.19700001 9529708
0.0035968097 0.018738991 0.19700001 10186866
0.0045231949 0.018738991 0.19700001 10713210
0.0054772426 0.018834114 0.19800001 11041662
0.0064083305 0.018834114 0.19800001 11173502
0.0073394175 0.018834114 0.19800001 10647158
0.0082705058 0.018834114 0.19800001 10646388
0.0092015928 0.018834114 0.19800001 10777206
0.01013268 0.018834114 0.19800001 10777206
0.011063768 0.018834114 0.19800001 10777206
0.011994855 0.018834114 0.19800001 11434623
0.012925942 0.018834114 0.19800001 11303550
0.01385703 0.018834114 0.19800001 10316655
0.014788118 0.018834114 0.19800001 11303037
0.015719205 0.018834114 0.19800001 11369595
0.016650293 0.018834114 0.19800001 11435388
0.017581381 0.018834114 0.19800001 11238009
0.01841897 0.018738991 0.19700001 10909044
0.019345356 0.018738991 0.19700001 10909044
0.020271739 0.018738991 0.19700001 11040630
0.021198126 0.018738991 0.19700001 11041144
0.02212451 0.018738991 0.19700001 10909560
0.023050897 0.018738991 0.19700001 11369857
0.02397728 0.018738991 0.19700001 11238271
0.024903666 0.018738991 0.19700001 11633029
0.025830051 0.018738991 0.19700001 11172478
0.026756436 0.018738991 0.19700001 11040892
0.027682822 0.018738991 0.19700001 10121073
0.028609207 0.018738991 0.19700001 9135461
0.02953559 0.018738991 0.19700001 8544612
0.030307345 0.018643869 0.19600001 7231064
0.031229028 0.018643869 0.19600001 4732476
-0.01196611 0.020963091 0.21000001 4864064
-0.010769477 0.020563796 0.20600002 7165785
-0.0096580405 0.020264322 0.20300001 8021348
-0.0086605661 0.020164497 0.20200001 8875373
-0.0076343254 0.01996485 0.2 10322304
-0.0066938326 0.01996485 0.2 10519681
-0.0056958073 0.019765202 0.19800001 9532016
-0.0010351153 0.019665377 0.19700001 9005163
-0.00010873038 0.019665377 0.19700001 10453640
0.0008176546 0.019665377 0.19700001 9401204
0.0017440397 0.019665377 0.19700001 9596012
0.0026839804 0.019765202 0.19800001 9726315
0.0036150676 0.019765202 0.19800001 10384245
0.0045691156 0.019865027 0.19900002 10252659
0.0055049057 0.019865027 0.19900002 10252913
0.0064406958 0.019865027 0.19900002 10450292
0.0073764855 0.019865027 0.19900002 10647419
0.0083122756 0.019865027 0.19900002 10252148
0.0092480658 0.019865027 0.19900002 11041146
0.010183855 0.019865027 0.19900002 10843767
0.011119645 0.019865027 0.19900002 10843253
0.012055435 0.019865027 0.19900002 10777460
0.012991224 0.019865027 0.19900002 11172218
0.013927015 0.019865027 0.19900002 11303550
0.014862806 0.019865027 0.19900002 11369857
0.015798597 0.019865027 0.19900002 11238271
0.016734384 0.019865027 0.19900002 11238525
0.017670175 0.019865027 0.19900002 11106937
0.018605966 0.019865027 0.19900002 11106937
0.019541755 0.019865027 0.19900002 11041144
0.020477545 0.019865027 0.19900002 10449779
0.021413336 0.019865027 0.19900002 10186607
0.022349125 0.019865027 0.19900002 9265251
0.023284916 0.019865027 0.19900002 9265253
0.024220705 0.019865027 0.19900002 9660524
0.025156494 0.019865027 0.19900002 9989491
0.025961168 0.019765202 0.19800001 9463147
0.026756436 0.019665377 0.19700001 8938086
0.027682822 0.019665377 0.19700001 8479332
0.028609207 0.019665377 0.19700001 7823717
0.02953559 0.019665377 0.19700001 6312791
0.030307345 0.019565552 0.19600001 5063753
-0.01332373 0.022577768 0.21600001 3487801
-0.012080073 0.022159662 0.21200001 3815739
-0.010874035 0.021741554 0.208 4471103
-0.0098483469 0.021637028 0.20700002 4996414
-0.008874937 0.021637028 0.20700002 5785417
-0.0078251837 0.021427974 0.20500001 6968146
-0.0067942403 0.02121892 0.20300001 6769995
-0.0058396407 0.02121892 0.20300001 8480100
-0.0048369123 0.021009866 0.20100001 8019549
-0.0038723554 0.02090534 0.2 8479332
-0.0029318633 0.02090534 0.2 8610916
-0.0019814142 0.020800814 0.19900002 8676196
-0.0010403697 0.020696288 0.19800001 8610664
-0.00010928231 0.020696288 0.19800001 10126736
0.00082180515 0.020696288 0.19800001 8152682
0.0017528927 0.020696288 0.19800001 8676196
0.0026975358 0.020800814 0.19900002 9003362
0.0036333255 0.020800814 0.19900002 8871776
0.0045920755 0.02090534 0.2 8937569
0.0055325679 0.02090534 0.2 9068387
0.0064730607 0.02090534 0.2 9331559
0.0074135526 0.02090534 0.2 9265764
0.0083540455 0.02090534 0.2 9660522
0.0092945378 0.02090534 0.2 9528936
0.010235029 0.02090534 0.2 8869723
0.011175523 0.02090534 0.2 10120044
0.012116014 0.02090534 0.2 10580595
0.013056506 0.02090534 0.2 9988458
0.013996999 0.02090534 0.2 9792362
0.014937492 0.02090534 0.2 9923694
0.015877984 0.02090534 0.2 10252661
0.016818477 0.02090534 0.2 10121075
0.017758969 0.02090534 0.2 9989489
0.018699462 0.02090534 0.2 9989489
0.019639954 0.02090534 0.2 9989487
0.020580446 0.02090534 0.2 9069157
0.021520939 0.02090534 0.2 9595501
0.022461431 0.02090534 0.2 9200743
0.023401923 0.02090534 0.2 8872291
0.024342416 0.02090534 0.2 8938598
0.025282908 0.02090534 0.2 8543840
0.027028076 0.020800814 0.19900002 8085605
0.027823344 0.020696288 0.19800001 5392205
0.028609207 0.02059176 0.19700001 4934222
0.029685516 0.020696288 0.19800001 5066065
-0.012080073 0.023156583 0.21200001 4146249
-0.011030871 0.023047354 0.21100001 4277835
-0.0098959226 0.022719666 0.208 4671823
-0.0089606848 0.022828896 0.20900001 5328983
-0.007901527 0.022610439 0.20700002 5130318
-0.0068611787 0.022391981 0.20500001 5391689
-0.0058684074 0.022282749 0.20400001 5916233
-0.0048609762 0.022064291 0.20200001 6244683
-0.0038917174 0.021955062 0.20100001 7099478
-0.0029465226 0.021955062 0.20100001 7559513
-0.0019913709 0.021845832 0.2 7690586
-0.0010456241 0.021736605 0.19900002 7691615
-0.00010983424 0.021736605 0.19900002 8351093
0.00082595571 0.021736605 0.19900002 7362652
0.0017617458 0.021736605 0.19900002 8084574
0.002711091 0.021845832 0.2 8346459
0.0036515833 0.021845832 0.2 8675424
0.0046150358 0.021955062 0.20100001 8674910
0.0055602309 0.021955062 0.20100001 8543324
0.006505426 0.021955062 0.20100001 8872289
0.0074506206 0.021955062 0.20100001 9003875
