# .PCD v0.7 - Point Cloud Data file format
VERSION 0.7
FIELDS x y z rgb
SIZE 4 4 4 4
TYPE F F F U
COUNT 1 1 1 1
WIDTH 1116
HEIGHT 1
VIEWPOINT 0 0 0 1 0 0 0
POINTS 1116
DATA ascii
0.026213158 0.011097902 0.193 5717559
0.027120734 0.011097902 0.193 6507073
0.028028307 0.011097902 0.193 6771015
0.028935881 0.011097902 0.193 6442050
0.029843457 0.011097902 0.193 5586741
0.030751033 0.011097902 0.193 5849913
0.031658608 0.011097902 0.193 6507845
0.032397445 0.0110404 0.192 6639431
0.033300318 0.0110404 0.192 6902603
0.03420319 0.0110404 0.192 6771017
0.035106063 0.0110404 0.192 5255212
0.036008935 0.0110404 0.192 5514534
0.036911808 0.0110404 0.192 4395537
0.037617732 0.010982899 0.19100001 5907745
0.038515903 0.010982899 0.19100001 9985366
0.039414074 0.010982899 0.19100001 11167844
0.040312245 0.010982899 0.19100001 10772316
0.041210417 0.010982899 0.19100001 10312796
0.041888118 0.010925396 0.19000001 11563381
0.042781588 0.010925396 0.19000001 11431797
0.043675054 0.010925396 0.19000001 13470610
0.04433395 0.010867895 0.18900001 13997724
0.045222718 0.010867895 0.18900001 13077649
0.046111483 0.010867895 0.18900001 4598063
0.04675157 0.010810392 0.18800001 3288627
-0.015234056 0.012503114 0.20100001 5259333
-0.014217772 0.012440909 0.2 12554385
-0.013277279 0.012440909 0.2 12813448
-0.012336787 0.012440909 0.2 14324118
-0.011339314 0.012378705 0.19900002 15507363
-0.010403524 0.012378705 0.19900002 15045529
-0.0095153106 0.012440909 0.2 14915998
-0.0085319439 0.012378705 0.19900002 14063778
-0.0075961542 0.012378705 0.19900002 16773110
-0.0066603641 0.012378705 0.19900002 16771828
-0.005724574 0.012378705 0.19900002 12418440
-0.0047887838 0.012378705 0.19900002 13139590
-0.0038529939 0.012378705 0.19900002 14653083
-0.0029025448 0.012316501 0.19800001 12154748
-0.0019714574 0.012316501 0.19800001 12484998
-0.0010403697 0.012316501 0.19800001 11893125
-0.00010928231 0.012316501 0.19800001 16764631
0.00082180515 0.012316501 0.19800001 16764883
0.0017528927 0.012316501 0.19800001 15116718
0.0026839804 0.012316501 0.19800001 11761014
0.0036150676 0.012316501 0.19800001 12549760
0.0045461552 0.012316501 0.19800001 13274253
0.0054772426 0.012316501 0.19800001 13405587
0.0064083305 0.012316501 0.19800001 13934759
0.0073023499 0.012254296 0.19700001 13408417
0.0082287351 0.012254296 0.19700001 11433855
0.0091551198 0.012254296 0.19700001 10315374
0.010030329 0.012192091 0.19600001 8869211
0.010952013 0.012192091 0.19600001 7027519
0.011873694 0.012192091 0.19600001 6371642
0.012795377 0.012192091 0.19600001 6306876
0.01371706 0.012192091 0.19600001 6505027
0.014638742 0.012192091 0.19600001 6306878
0.015560426 0.012192091 0.19600001 6372669
0.016398015 0.012129886 0.19500001 6044474
0.017314995 0.012129886 0.19500001 6177343
0.018231975 0.012129886 0.19500001 5191215
0.019148955 0.012129886 0.19500001 5783352
0.020065935 0.012129886 0.19500001 5452850
0.020982916 0.012129886 0.19500001 5321264
0.021787588 0.012067682 0.19400001 5321264
0.022699866 0.012067682 0.19400001 5321264
0.023612143 0.012067682 0.19400001 5518384
0.02452442 0.012067682 0.19400001 6110780
0.025305582 0.012005477 0.193 6243651
0.026213158 0.012005477 0.193 5980477
0.027120734 0.012005477 0.193 5585719
0.028028307 0.012005477 0.193 5454903
0.028935881 0.012005477 0.193 5652536
0.029843457 0.012005477 0.193 6771017
0.030751033 0.012005477 0.193 6968396
0.031658608 0.012005477 0.193 6310466
0.032397445 0.011943272 0.192 6310466
0.033300318 0.011943272 0.192 6637894
0.03420319 0.011943272 0.192 6700859
0.035106063 0.011943272 0.192 10908785
0.036008935 0.011943272 0.192 10314593
0.036911808 0.011943272 0.192 11695730
0.037617732 0.011881068 0.19100001 12353401
0.038515903 0.011881068 0.19100001 11628141
0.039414074 0.011881068 0.19100001 11299176
0.040312245 0.011881068 0.19100001 11628143
0.041210417 0.011881068 0.19100001 12681346
0.041888118 0.011818864 0.19000001 13799827
0.042781588 0.011818864 0.19000001 14458273
0.043675054 0.011818864 0.19000001 14261409
0.04433395 0.011756659 0.18900001 13603479
0.045222718 0.011756659 0.18900001 12159377
0.046111483 0.011756659 0.18900001 3481641
0.04675157 0.011694455 0.18800001 3092018
-0.015234056 0.013448308 0.20100001 9862268
-0.014217772 0.013381401 0.2 12486280
-0.013277279 0.013381401 0.2 14194072
-0.012275103 0.013314495 0.19900002 13402755
-0.011339314 0.013314495 0.19900002 13531518
-0.010403524 0.013314495 0.19900002 12543850
-0.009467734 0.013314495 0.19900002 12413039
-0.0085319439 0.013314495 0.19900002 11626099
-0.0075961542 0.013314495 0.19900002 16772081
-0.0066603641 0.013314495 0.19900002 16772339
-0.005724574 0.013314495 0.19900002 14656431
-0.0047887838 0.013314495 0.19900002 11693938
-0.0038529939 0.013314495 0.19900002 13468802
-0.0029025448 0.013247588 0.19800001 9983066
-0.0019714574 0.013247588 0.19800001 13010059
-0.0010403697 0.013247588 0.19800001 11102580
-0.00010928231 0.013247588 0.19800001 13010575
0.00082180515 0.013247588 0.19800001 16564678
0.0017528927 0.013247588 0.19800001 12615299
0.0026839804 0.013247588 0.19800001 11694451
0.0036150676 0.013247588 0.19800001 11958391
0.0045461552 0.013247588 0.19800001 10116700
0.0054772426 0.013247588 0.19800001 10117732
0.0064083305 0.013247588 0.19800001 8079695
0.0073023499 0.013180681 0.19700001 6304570
0.0082287351 0.013180681 0.19700001 6305083
0.0091551198 0.013180681 0.19700001 6766402
0.010030329 0.013113773 0.19600001 6569536
0.010952013 0.013113773 0.19600001 6306364
0.011873694 0.013113773 0.19600001 6371896
0.012795377 0.013113773 0.19600001 5976366
0.01371706 0.013113773 0.19600001 6042159
0.014638742 0.013113773 0.19600001 6305333
0.015560426 0.013113773 0.19600001 9067354
0.016398015 0.013046866 0.19500001 8277324
0.017314995 0.013046866 0.19500001 7225150
0.018231975 0.013046866 0.19500001 6042161
0.019148955 0.013046866 0.19500001 5318436
0.020065935 0.013046866 0.19500001 7882055
0.020982916 0.013046866 0.19500001 6633015
0.021787588 0.012979959 0.19400001 6238257
0.022699866 0.012979959 0.19400001 7947078
0.023612143 0.012979959 0.19400001 9855075
0.02452442 0.012979959 0.19400001 8737110
0.025305582 0.012913052 0.193 6698556
0.026213158 0.012913052 0.193 5909292
0.027120734 0.012913052 0.193 5383718
0.028028307 0.012913052 0.193 5450024
0.028935881 0.012913052 0.193 5846063
0.029843457 0.012913052 0.193 6438200
0.030751033 0.012913052 0.193 6044210
0.031658608 0.012913052 0.193 5582891
0.032397445 0.012846145 0.192 7095367
0.033300318 0.012846145 0.192 7750982
0.03420319 0.012846145 0.192 9261393
0.035106063 0.012846145 0.192 12615551
0.036008935 0.012846145 0.192 11364971
0.036911808 0.012846145 0.192 11364201
0.037617732 0.012779239 0.19100001 11957108
0.038515903 0.012779239 0.19100001 12154489
0.039414074 0.012779239 0.19100001 12614270
0.040312245 0.012779239 0.19100001 13009796
0.041210417 0.012779239 0.19100001 13404554
0.041888118 0.012712331 0.19000001 14588828
0.042781588 0.012712331 0.19000001 14457757
0.043675054 0.012712331 0.19000001 14260894
0.04433395 0.012645424 0.18900001 12946833
0.045222718 0.012645424 0.18900001 6042427
0.046111483 0.012645424 0.18900001 3086368
0.04675157 0.012578517 0.18800001 2301215
-0.015234056 0.014393503 0.20100001 12029070
-0.014217772 0.014321893 0.2 12682629
-0.013277279 0.014321893 0.2 12810879
-0.012275103 0.014250285 0.19900002 13664128
-0.011339314 0.014250285 0.19900002 11689566
-0.010403524 0.014250285 0.19900002 12347496
-0.009467734 0.014250285 0.19900002 12347496
-0.0085319439 0.014250285 0.19900002 12151405
-0.0075961542 0.014250285 0.19900002 13864853
-0.0066603641 0.014250285 0.19900002 11298926
-0.005724574 0.014250285 0.19900002 13008004
-0.0047887838 0.014250285 0.19900002 12350069
-0.0038529939 0.014250285 0.19900002 10639960
-0.0029025448 0.014178676 0.19800001 9786200
-0.0019714574 0.014178676 0.19800001 11892871
-0.0010403697 0.014178676 0.19800001 10642544
-0.00010928231 0.014178676 0.19800001 9392477
0.00082180515 0.014178676 0.19800001 8734545
0.0017528927 0.014178676 0.19800001 9654616
0.0026839804 0.014178676 0.19800001 9719894
0.0036150676 0.014178676 0.19800001 6827052
0.0045461552 0.014178676 0.19800001 7090484
0.0054772426 0.014178676 0.19800001 6105905
0.0064083305 0.014178676 0.19800001 5975605
0.0073023499 0.014107066 0.19700001 5844532
0.0082287351 0.014107066 0.19700001 5450290
0.0091551198 0.014107066 0.19700001 6240060
0.010030329 0.014035456 0.19600001 6305081
0.010952013 0.014035456 0.19600001 7684935
0.011873694 0.014035456 0.19600001 10645361
0.012795377 0.014035456 0.19600001 10907761
0.01371706 0.014035456 0.19600001 10907761
0.014638742 0.014035456 0.19600001 10973554
0.015560426 0.014035456 0.19600001 10249066
0.016398015 0.013963846 0.19500001 11303039
0.017314995 0.013963846 0.19500001 15119548
0.018231975 0.013963846 0.19500001 9725034
0.019148955 0.013963846 0.19500001 9263456
0.020065935 0.013963846 0.19500001 9853792
0.020982916 0.013963846 0.19500001 10511722
0.021787588 0.013892237 0.19400001 9985376
0.022699866 0.013892237 0.19400001 11761787
0.023612143 0.013892237 0.19400001 12815760
0.02452442 0.013892237 0.19400001 16765910
0.025305582 0.013820628 0.193 14593716
0.026213158 0.013820628 0.193 11894658
0.027120734 0.013820628 0.193 10313827
0.028028307 0.013820628 0.193 9854044
0.028935881 0.013820628 0.193 8538954
0.029843457 0.013820628 0.193 9261907
0.030751033 0.013820628 0.193 10774892
0.031658608 0.013820628 0.193 9854560
0.032397445 0.013749017 0.192 8935002
0.033300318 0.013749017 0.192 15449023
0.03420319 0.013749017 0.192 16236994
0.035106063 0.013749017 0.192 16761796
0.036008935 0.013749017 0.192 13141384
0.036911808 0.013749017 0.192 13272716
0.037617732 0.013677409 0.19100001 13667474
0.038515903 0.013677409 0.19100001 13536142
0.039414074 0.013677409 0.19100001 14128792
0.040312245 0.013677409 0.19100001 13931413
0.041210417 0.013677409 0.19100001 14326169
0.041888118 0.0136058 0.19000001 14261146
0.042781588 0.0136058 0.19000001 13866388
0.043675054 0.0136058 0.19000001 13472659
0.04433395 0.01353419 0.18900001 9726308
0.045222718 0.01353419 0.18900001 7952725
0.046111483 0.01353419 0.18900001 9799555
0.04675157 0.013462581 0.18800001 5721421
-0.016098756 0.015262387 0.2 4995129
-0.015158265 0.015262387 0.2 12486282
-0.014217772 0.015262387 0.2 12944264
-0.013277279 0.015262387 0.2 12877442
-0.012275103 0.015186075 0.19900002 13401726
-0.011339314 0.015186075 0.19900002 12940403
-0.010403524 0.015186075 0.19900002 12677231
-0.009467734 0.015186075 0.19900002 13203827
-0.0085319439 0.015186075 0.19900002 11558234
-0.0075961542 0.015186075 0.19900002 11557982
-0.0066603641 0.015186075 0.19900002 10375511
-0.005724574 0.015186075 0.19900002 11362924
-0.0047887838 0.015186075 0.19900002 10573917
-0.0038529939 0.015186075 0.19900002 9456202
-0.0029025448 0.015109763 0.19800001 9786970
-0.0019714574 0.015109763 0.19800001 10314093
-0.0010403697 0.015109763 0.19800001 9590116
-0.00010928231 0.015109763 0.19800001 9524325
0.00082180515 0.015109763 0.19800001 10971769
0.0017528927 0.015109763 0.19800001 14195880
0.0026839804 0.015109763 0.19800001 10380654
0.0036150676 0.015109763 0.19800001 10906480
0.0045461552 0.015109763 0.19800001 12353924
0.0054772426 0.015109763 0.19800001 12617866
0.0064083305 0.015109763 0.19800001 12552588
0.0073023499 0.015033451 0.19700001 12486795
0.0082287351 0.015033451 0.19700001 12093066
0.0091551198 0.015033451 0.19700001 13408926
0.010030329 0.014957139 0.19600001 14526126
0.010952013 0.014957139 0.19600001 11302008
0.011873694 0.014957139 0.19600001 12222338
0.012795377 0.014957139 0.19600001 12485764
0.01371706 0.014957139 0.19600001 13208973
0.014638742 0.014957139 0.19600001 12880008
0.015560426 0.014957139 0.19600001 11761789
0.016398015 0.014880827 0.19500001 16764117
0.017314995 0.014880827 0.19500001 16565709
0.018231975 0.014880827 0.19500001 15249338
0.019148955 0.014880827 0.19500001 11959684
0.020065935 0.014880827 0.19500001 13602196
0.020982916 0.014880827 0.19500001 13339022
0.021787588 0.014804515 0.19400001 13471378
0.022699866 0.014804515 0.19400001 14064544
0.023612143 0.014804515 0.19400001 16768739
0.02452442 0.014804515 0.19400001 16773108
0.025305582 0.014728203 0.193 16772077
0.026213158 0.014728203 0.193 16763597
0.027120734 0.014728203 0.193 11694451
0.028028307 0.014728203 0.193 11892600
0.028935881 0.014728203 0.193 11696248
0.029843457 0.014728203 0.193 11696248
0.030751033 0.014728203 0.193 12551303
0.031658608 0.014728203 0.193 12552073
0.032397445 0.014651891 0.192 11237246
0.033300318 0.014651891 0.192 16632787
0.03420319 0.014651891 0.192 16369615
0.035106063 0.014651891 0.192 16764112
0.036008935 0.014651891 0.192 13602194
0.036911808 0.014651891 0.192 13864853
0.037617732 0.01457558 0.19100001 14128279
0.038515903 0.01457558 0.19100001 13865620
0.039414074 0.01457558 0.19100001 13997976
0.040312245 0.01457558 0.19100001 14458527
0.041210417 0.01457558 0.19100001 14524833
0.041888118 0.014499268 0.19000001 14656419
0.042781588 0.014499268 0.19000001 12157315
0.043675054 0.014499268 0.19000001 10647158
0.04433395 0.014422956 0.18900001 6505542
0.045222718 0.014422956 0.18900001 2561558
0.046111483 0.014422956 0.18900001 1775124
-0.015158265 0.01620288 0.2 12552334
-0.014217772 0.01620288 0.2 13274001
-0.013277279 0.01620288 0.2 12877960
-0.012275103 0.016121866 0.19900002 13665159
-0.011339314 0.016121866 0.19900002 12611958
-0.010403524 0.016121866 0.19900002 12479854
-0.009467734 0.016121866 0.19900002 11887717
-0.0085319439 0.016121866 0.19900002 13071991
-0.0075961542 0.016121866 0.19900002 12085614
-0.0066603641 0.016121866 0.19900002 10837355
-0.005724574 0.016121866 0.19900002 12878223
-0.0047887838 0.016121866 0.19900002 10772593
-0.0038529939 0.016121866 0.19900002 12154750
-0.0029025448 0.01604085 0.19800001 11892348
-0.0019714574 0.01604085 0.19800001 11169918
-0.0010403697 0.01604085 0.19800001 11499398
-0.00010928231 0.01604085 0.19800001 10511988
0.00082180515 0.01604085 0.19800001 16763865
0.0017528927 0.01604085 0.19800001 16764116
0.0026839804 0.01604085 0.19800001 16765143
0.0036150676 0.01604085 0.19800001 13011854
0.0045461552 0.01604085 0.19800001 13669784
0.0054772426 0.01604085 0.19800001 13932442
0.0064083305 0.01604085 0.19800001 14195614
0.0073023499 0.015959837 0.19700001 12945547
0.0082287351 0.015959837 0.19700001 15840701
0.0091551198 0.015959837 0.19700001 16105156
0.010030329 0.015878823 0.19600001 15841986
0.010952013 0.015878823 0.19600001 12945295
0.011873694 0.015878823 0.19600001 13668757
0.012795377 0.015878823 0.19600001 13339276
0.01371706 0.015878823 0.19600001 13668241
0.014638742 0.015878823 0.19600001 13734804
0.015560426 0.015878823 0.19600001 16235199
0.016398015 0.015797807 0.19500001 16762314
0.017314995 0.015797807 0.19500001 15314097
0.018231975 0.015797807 0.19500001 13010059
0.019148955 0.015797807 0.19500001 13272718
0.020065935 0.015797807 0.19500001 12285823
0.020982916 0.015797807 0.19500001 12417668
0.021787588 0.015716793 0.19400001 12878219
0.022699866 0.015716793 0.19400001 12815258
0.023612143 0.015716793 0.19400001 16770548
0.02452442 0.015716793 0.19400001 16506343
0.025305582 0.015635779 0.193 16768224
0.026213158 0.015635779 0.193 16171203
0.027120734 0.015635779 0.193 14458273
0.028028307 0.015635779 0.193 14589343
0.028935881 0.015635779 0.193 14917025
0.029843457 0.015635779 0.193 14918308
0.030751033 0.015635779 0.193 13997976
0.031658608 0.015635779 0.193 13669786
0.032397445 0.015554764 0.192 13012887
0.033300318 0.015554764 0.192 16764117
0.03420319 0.015554764 0.192 16566479
0.035106063 0.015554764 0.192 16764114
0.036008935 0.015554764 0.192 12681862
0.036911808 0.015554764 0.192 13865620
0.03781468 0.015554764 0.192 14062999
0.038717553 0.015554764 0.192 13866390
0.039620429 0.015554764 0.192 13011594
0.040523302 0.015554764 0.192 12156285
0.041426174 0.015554764 0.192 11827834
0.041888118 0.015392736 0.19000001 11236726
0.042781588 0.015392736 0.19000001 10778490
-0.015158265 0.017143371 0.2 12489621
-0.014217772 0.017143371 0.2 14261409
-0.013277279 0.017143371 0.2 13206925
-0.012275103 0.017057655 0.19900002 13468298
-0.011339314 0.017057655 0.19900002 13927566
-0.010403524 0.017057655 0.19900002 15506850
-0.009467734 0.017057655 0.19900002 14652824
-0.0085319439 0.017057655 0.19900002 13402759
-0.0075961542 0.017057655 0.19900002 12087674
-0.0066603641 0.017057655 0.19900002 16766436
-0.005724574 0.017057655 0.19900002 16766946
-0.0047887838 0.017057655 0.19900002 16170951
-0.0038529939 0.017057655 0.19900002 13077395
-0.0029025448 0.016971938 0.19800001 12879756
-0.0019714574 0.016971938 0.19800001 13011602
-0.0010403697 0.016971938 0.19800001 13342624
-0.00010928231 0.016971938 0.19800001 14723507
0.00082180515 0.016971938 0.19800001 16762575
0.0017528927 0.016971938 0.19800001 16763859
0.0026839804 0.016971938 0.19800001 14393255
0.0036150676 0.016971938 0.19800001 13538198
0.0045461552 0.016971938 0.19800001 13998749
0.0054772426 0.016971938 0.19800001 14261407
0.0064083305 0.016971938 0.19800001 14195614
0.0073023499 0.016886221 0.19700001 13997976
0.0082287351 0.016886221 0.19700001 13538200
0.0091551198 0.016886221 0.19700001 16764628
0.010030329 0.016800504 0.19600001 16767456
0.010952013 0.016800504 0.19600001 13669018
0.011873694 0.016800504 0.19600001 14326941
0.012795377 0.016800504 0.19600001 14260378
0.01371706 0.016800504 0.19600001 13602446
0.014638742 0.016800504 0.19600001 14852515
0.015560426 0.016800504 0.19600001 13866649
0.016398015 0.016714787 0.19500001 15117232
0.017314995 0.016714787 0.19500001 13669270
0.018231975 0.016714787 0.19500001 14062232
0.019148955 0.016714787 0.19500001 13141132
0.020065935 0.016714787 0.19500001 12878473
0.020982916 0.016714787 0.19500001 13075339
0.021787588 0.01662907 0.19400001 15114922
0.022699866 0.01662907 0.19400001 14391460
0.023612143 0.01662907 0.19400001 16768747
0.02452442 0.01662907 0.19400001 16773624
0.025436699 0.01662907 0.19400001 16768483
0.026213158 0.016543353 0.193 14655400
0.027120734 0.016543353 0.193 14588576
0.028028307 0.016543353 0.193 15244963
0.028935881 0.016543353 0.193 13991816
0.029843457 0.016543353 0.193 14850208
0.030751033 0.016543353 0.193 16760010
0.031658608 0.016543353 0.193 13274001
0.032566182 0.016543353 0.193 14195616
0.03347376 0.016543353 0.193 16301252
0.034381334 0.016543353 0.193 16763602
0.035288908 0.016543353 0.193 16765912
0.036196481 0.016543353 0.193 13273999
0.037104059 0.016543353 0.193 12615553
0.038011633 0.016543353 0.193 13734804
0.03891921 0.016543353 0.193 12880008
0.039826784 0.016543353 0.193 12024959
0.040734358 0.016543353 0.193 11170420
0.041641936 0.016543353 0.193 11172218
0.042108584 0.016371921 0.19100001 9068387
0.042781588 0.016286204 0.19000001 7952223
-0.015158265 0.018083863 0.2 7229013
-0.014217772 0.018083863 0.2 13540512
-0.013277279 0.018083863 0.2 13931931
-0.012275103 0.017993445 0.19900002 13863315
-0.011339314 0.017993445 0.19900002 16230323
-0.010403524 0.017993445 0.19900002 16493493
-0.009467734 0.017993445 0.19900002 16757435
-0.0085319439 0.017993445 0.19900002 16100277
-0.0075961542 0.017993445 0.19900002 14982566
-0.0066603641 0.017993445 0.19900002 16763349
-0.005724574 0.017993445 0.19900002 16765401
-0.0047887838 0.017993445 0.19900002 16765398
-0.0038529939 0.017993445 0.19900002 13471893
-0.0029025448 0.017903026 0.19800001 13866136
-0.0019714574 0.017903026 0.19800001 13866649
-0.0010403697 0.017903026 0.19800001 13407897
-0.00010928231 0.017903026 0.19800001 13801372
0.00082180515 0.017903026 0.19800001 16432065
0.0017528927 0.017903026 0.19800001 16763856
0.0026839804 0.017903026 0.19800001 13735577
0.0036150676 0.017903026 0.19800001 13932696
0.0045461552 0.017903026 0.19800001 14590626
0.0054772426 0.017903026 0.19800001 13800597
0.0064083305 0.017903026 0.19800001 14326941
0.0073023499 0.017812606 0.19700001 13932183
0.0082287351 0.017812606 0.19700001 14523296
0.0091551198 0.017812606 0.19700001 15246506
0.010081504 0.017812606 0.19700001 13009544
0.010952013 0.017722186 0.19600001 13141130
0.011873694 0.017722186 0.19600001 13865105
0.012795377 0.017722186 0.19600001 13667724
0.01371706 0.017722186 0.19600001 13536138
0.014638742 0.017722186 0.19600001 14325656
0.015560426 0.017722186 0.19600001 12352897
0.016482107 0.017722186 0.19600001 12089725
0.017314995 0.017631767 0.19500001 12879754
0.018231975 0.017631767 0.19500001 13142926
0.019148955 0.017631767 0.19500001 13273999
0.020065935 0.017631767 0.19500001 13011081
0.020982916 0.017631767 0.19500001 13141897
0.021899896 0.017631767 0.19500001 13207690
0.022816876 0.017631767 0.19500001 13075591
0.023733856 0.017631767 0.19500001 13207438
0.024650836 0.017631767 0.19500001 13076368
0.025567817 0.017631767 0.19500001 14588837
0.026348976 0.017541347 0.19400001 14852263
0.027261255 0.017541347 0.19400001 14589089
0.028173532 0.017541347 0.19400001 14128538
0.029085808 0.017541347 0.19400001 13207690
0.029998086 0.017541347 0.19400001 16770536
0.030910363 0.017541347 0.19400001 16762578
0.03182264 0.017541347 0.19400001 13471639
0.032734919 0.017541347 0.19400001 16763856
0.033647198 0.017541347 0.19400001 12223110
0.034559477 0.017541347 0.19400001 12157063
0.035471752 0.017541347 0.19400001 11630203
0.036384027 0.017541347 0.19400001 11695994
0.037296306 0.017541347 0.19400001 11563894
0.038208585 0.017541347 0.19400001 10906478
0.039120864 0.017541347 0.19400001 10709869
0.040033139 0.017541347 0.19400001 10908531
0.040945418 0.017541347 0.19400001 10974839
0.041857697 0.017541347 0.19400001 8936288
0.042329043 0.017360508 0.192 8412002
-0.015158265 0.019024355 0.2 4928825
-0.014217772 0.019024355 0.2 8869723
-0.013277279 0.019024355 0.2 13342104
-0.012275103 0.018929236 0.19900002 13734811
-0.011339314 0.018929236 0.19900002 15639726
-0.010403524 0.018929236 0.19900002 16100018
-0.009467734 0.018929236 0.19900002 14849951
-0.0085319439 0.018929236 0.19900002 14785955
-0.0075961542 0.018929236 0.19900002 14917543
-0.0066603641 0.018929236 0.19900002 14721195
-0.005724574 0.018929236 0.19900002 16767202
-0.0047887838 0.018929236 0.19900002 16763598
-0.0038529939 0.018929236 0.19900002 14786468
-0.0029025448 0.018834114 0.19800001 14786468
-0.0019714574 0.018834114 0.19800001 14195614
-0.0010403697 0.018834114 0.19800001 13144210
-0.00010928231 0.018834114 0.19800001 13341589
0.00082180515 0.018834114 0.19800001 13011854
0.0017528927 0.018834114 0.19800001 12945547
0.0026839804 0.018834114 0.19800001 13472405
0.0036150676 0.018834114 0.19800001 13143440
0.0045461552 0.018834114 0.19800001 13077647
0.0054772426 0.018834114 0.19800001 12748682
0.0064083305 0.018834114 0.19800001 12682889
0.0073023499 0.018738991 0.19700001 12551303
0.0082287351 0.018738991 0.19700001 13010827
0.0091551198 0.018738991 0.19700001 13667987
0.010081504 0.018738991 0.19700001 13339276
0.01100789 0.018738991 0.19700001 13141897
0.011934275 0.018738991 0.19700001 13207175
0.01286066 0.018738991 0.19700001 13404554
0.013787045 0.018738991 0.19700001 12680833
0.01471343 0.018738991 0.19700001 12483454
0.015639815 0.018738991 0.19700001 12483967
0.0165662 0.018738991 0.19700001 12352381
0.017403791 0.018643869 0.19600001 12352897
0.018325472 0.018643869 0.19600001 12681862
0.019247156 0.018643869 0.19600001 12813448
0.020168837 0.018643869 0.19600001 12682375
0.021090521 0.018643869 0.19600001 12945801
0.022012204 0.018643869 0.19600001 13208460
0.022933885 0.018643869 0.19600001 13274253
0.023855567 0.018643869 0.19600001 13011081
0.02477725 0.018643869 0.19600001 13668757
0.025698934 0.018643869 0.19600001 13866136
0.026484797 0.018548748 0.19500001 14918054
0.027401777 0.018548748 0.19500001 13339792
0.028318757 0.018548748 0.19500001 13603477
0.029235736 0.018548748 0.19500001 13142926
0.030152716 0.018548748 0.19500001 12681862
0.031069696 0.018548748 0.19500001 12023934
0.031986676 0.018548748 0.19500001 11497590
0.032903656 0.018548748 0.19500001 11498103
0.033820637 0.018548748 0.19500001 11958654
0.034737617 0.018548748 0.19500001 11893373
0.035654597 0.018548748 0.19500001 12025729
0.036571577 0.018548748 0.19500001 11894143
0.037488557 0.018548748 0.19500001 11565691
0.038405538 0.018548748 0.19500001 10842738
0.039322518 0.018548748 0.19500001 10908531
0.040239498 0.018548748 0.19500001 10711665
0.041156478 0.018548748 0.19500001 9726056
0.04228922 0.018643869 0.19600001 9200743
-0.013277279 0.01996485 0.2 9398635
-0.012275103 0.019865027 0.19900002 10975869
-0.011339314 0.019865027 0.19900002 12748682
-0.010403524 0.019865027 0.19900002 13074819
-0.009467734 0.019865027 0.19900002 13601163
-0.0085319439 0.019865027 0.19900002 13997206
-0.0075961542 0.019865027 0.19900002 14062999
-0.0066603641 0.019865027 0.19900002 14983334
-0.005724574 0.019865027 0.19900002 14522783
-0.0047887838 0.019865027 0.19900002 14062232
-0.0038529939 0.019865027 0.19900002 14062745
-0.0029025448 0.019765202 0.19800001 13866136
-0.0019714574 0.019765202 0.19800001 13603479
-0.0010403697 0.019765202 0.19800001 11566463
-0.00010928231 0.019765202 0.19800001 12026244
0.00082180515 0.019765202 0.19800001 12223108
0.0017528927 0.019765202 0.19800001 12091522
0.0026839804 0.019765202 0.19800001 12617866
0.0036150676 0.019765202 0.19800001 12947344
0.0045461552 0.019765202 0.19800001 11369597
0.0054772426 0.019765202 0.19800001 11434877
0.0064083305 0.019765202 0.19800001 11828863
0.0073394175 0.019765202 0.19800001 12223108
0.0082705058 0.019765202 0.19800001 12287617
0.0092015928 0.019765202 0.19800001 12747655
0.01013268 0.019765202 0.19800001 13208460
0.011063768 0.019765202 0.19800001 13141897
0.011994855 0.019765202 0.19800001 13010311
0.012925942 0.019765202 0.19800001 12418944
0.01385703 0.019765202 0.19800001 12287358
0.014788118 0.019765202 0.19800001 12089979
0.015719205 0.019765202 0.19800001 12484737
0.016650293 0.019765202 0.19800001 12353151
0.017492585 0.019665377 0.19700001 12484737
0.01841897 0.019665377 0.19700001 12484996
0.019345356 0.019665377 0.19700001 12287617
0.020271739 0.019665377 0.19700001 12090752
0.021198126 0.019665377 0.19700001 12353924
0.02212451 0.019665377 0.19700001 12353924
0.023050897 0.019665377 0.19700001 12485510
0.02397728 0.019665377 0.19700001 12485510
0.024903666 0.019665377 0.19700001 11761787
0.025830051 0.019665377 0.19700001 11892859
0.026620617 0.019565552 0.19600001 11761273
0.027542299 0.019565552 0.19600001 11827068
0.028463982 0.019565552 0.19600001 12616584
0.029385662 0.019565552 0.19600001 12221824
0.030307345 0.019565552 0.19600001 11563381
0.031229028 0.019565552 0.19600001 11761273
0.032150712 0.019565552 0.19600001 11893373
0.033072393 0.019565552 0.19600001 11761787
0.033994079 0.019565552 0.19600001 11630201
0.03491576 0.019565552 0.19600001 11499385
0.035837442 0.019565552 0.19600001 11236726
0.036759123 0.019565552 0.19600001 11105910
0.037680805 0.019565552 0.19600001 10974839
0.03860249 0.019565552 0.19600001 10843253
0.039524172 0.019565552 0.19600001 10382962
0.040652212 0.019665377 0.19700001 9989228
0.041578598 0.019665377 0.19700001 9331557
0.042504981 0.019665377 0.19700001 8016980
-0.011339314 0.020800814 0.19900002 5715774
-0.010403524 0.020800814 0.19900002 12094604
-0.009467734 0.020800814 0.19900002 11500150
-0.0085319439 0.020800814 0.19900002 11827832
-0.0076343254 0.02090534 0.2 12287869
-0.0066603641 0.020800814 0.19900002 12747907
-0.005724574 0.020800814 0.19900002 12550528
-0.0047887838 0.020800814 0.19900002 12484996
-0.0038529939 0.020800814 0.19900002 12814477
-0.0029172043 0.020800814 0.19900002 13011854
-0.0019814142 0.020800814 0.19900002 12947344
-0.0010456241 0.020800814 0.19900002 10976123
-0.00010928231 0.020696288 0.19800001 11303550
0.00082180515 0.020696288 0.19800001 11697277
0.0017528927 0.020696288 0.19800001 12025729
0.0026839804 0.020696288 0.19800001 12157830
0.0036150676 0.020696288 0.19800001 11371140
0.0045691156 0.020800814 0.19900002 10910076
0.0055049057 0.020800814 0.19900002 11238011
0.0064406958 0.020800814 0.19900002 11763842
0.0073764855 0.020800814 0.19900002 12157830
0.0083122756 0.020800814 0.19900002 12551303
0.0092480658 0.020800814 0.19900002 12814475
0.010183855 0.020800814 0.19900002 12682375
0.011119645 0.020800814 0.19900002 12880270
0.012055435 0.020800814 0.19900002 12551303
0.012991224 0.020800814 0.19900002 12682889
0.013927015 0.020800814 0.19900002 12353924
0.014862806 0.020800814 0.19900002 12156545
0.015798597 0.020800814 0.19900002 12353924
0.016734384 0.020800814 0.19900002 12353924
0.017581381 0.020696288 0.19800001 12485510
0.018512469 0.020696288 0.19800001 12353924
0.019443557 0.020696288 0.19800001 12091524
0.020374643 0.020696288 0.19800001 11959938
0.021305731 0.020696288 0.19800001 12421002
0.022236818 0.020696288 0.19800001 11630973
0.023167906 0.020696288 0.19800001 12025731
0.024098992 0.020696288 0.19800001 12157317
0.02503008 0.020696288 0.19800001 12222340
0.025961168 0.020696288 0.19800001 11827582
0.026756436 0.02059176 0.19700001 11630203
0.027682822 0.02059176 0.19700001 11499387
0.028609207 0.02059176 0.19700001 11499387
0.02953559 0.02059176 0.19700001 11236215
0.030461974 0.02059176 0.19700001 11104627
0.031388361 0.02059176 0.19700001 11170420
0.032314748 0.02059176 0.19700001 11499898
0.03324113 0.02059176 0.19700001 11828863
0.034167517 0.02059176 0.19700001 11828865
0.035093904 0.02059176 0.19700001 10447982
0.036020283 0.02059176 0.19700001 10448495
0.036946669 0.02059176 0.19700001 10382962
0.038065303 0.020696288 0.19800001 10448755
0.038996391 0.020696288 0.19800001 10646134
0.039927479 0.020696288 0.19800001 8738907
0.041064925 0.020800814 0.19900002 8410455
0.042000715 0.020800814 0.19900002 8214359
0.042720743 0.020696288 0.19800001 7952471
-0.010403524 0.021736605 0.19900002 4930370
-0.009467734 0.021736605 0.19900002 7755096
-0.0085319439 0.021736605 0.19900002 11172984
-0.0076343254 0.021845832 0.2 12289668
-0.0066938326 0.021845832 0.2 12486532
-0.0057533402 0.021845832 0.2 12420741
-0.0048128478 0.021845832 0.2 12157315
-0.0038723554 0.021845832 0.2 12092037
-0.0029318633 0.021845832 0.2 12289414
-0.0019913709 0.021845832 0.2 12028039
-0.0010456241 0.021736605 0.19900002 10581878
-0.00010983424 0.021736605 0.19900002 11699846
0.00082595571 0.021736605 0.19900002 11764353
0.0017617458 0.021736605 0.19900002 11434875
0.0026975358 0.021736605 0.19900002 11633029
0.0036333255 0.021736605 0.19900002 11042175
0.0045691156 0.021736605 0.19900002 10712951
0.0055049057 0.021736605 0.19900002 11501183
0.0064406958 0.021736605 0.19900002 12092289
0.0074135526 0.021845832 0.2 12354694
0.0083540455 0.021845832 0.2 12420487
0.0092945378 0.021845832 0.2 12617096
0.010235029 0.021845832 0.2 12617868
0.011175523 0.021845832 0.2 12025731
0.012116014 0.021845832 0.2 11433594
0.013056506 0.021845832 0.2 12223110
0.013996999 0.021845832 0.2 12420489
0.014937492 0.021845832 0.2 12486282
0.015877984 0.021845832 0.2 12288133
0.016818477 0.021845832 0.2 11432824
0.017670175 0.021736605 0.19900002 11367031
0.018605966 0.021736605 0.19900002 12485512
0.019541755 0.021736605 0.19900002 12092037
0.020477545 0.021736605 0.19900002 12026244
0.021413336 0.021736605 0.19900002 11631232
0.022349125 0.021736605 0.19900002 11697795
0.023284916 0.021736605 0.19900002 11369084
0.024220705 0.021736605 0.19900002 11631486
0.025156494 0.021736605 0.19900002 12289416
0.026092285 0.021736605 0.19900002 11762559
0.027028076 0.021736605 0.19900002 12026244
0.027963866 0.021736605 0.19900002 11960451
0.028754432 0.021627376 0.19800001 11894658
0.029685516 0.021627376 0.19800001 11631486
0.030616604 0.021627376 0.19800001 11236728
0.031547692 0.021627376 0.19800001 10908533
0.03247878 0.021627376 0.19800001 10908533
0.033409867 0.021627376 0.19800001 10974839
0.034340955 0.021627376 0.19800001 11369597
0.035272043 0.021627376 0.19800001 11435390
0.036203127 0.021627376 0.19800001 10909306
0.037321765 0.021736605 0.19900002 9922411
0.038257554 0.021736605 0.19900002 9659239
0.039390292 0.021845832 0.2 9528423
0.040330786 0.021845832 0.2 8871006
0.04127128 0.021845832 0.2 8740190
0.042211771 0.021845832 0.2 8280666
0.042720743 0.021627376 0.19800001 7887191
-0.009467734 0.022672396 0.19900002 5195339
-0.0085748173 0.022786325 0.2 6638927
-0.0076343254 0.022786325 0.2 9398887
-0.006727302 0.022900257 0.20100001 11502465
-0.0057821069 0.022900257 0.20100001 12028039
-0.0048369123 0.022900257 0.20100001 12488076
-0.0038917174 0.022900257 0.20100001 12751248
-0.0029318633 0.022786325 0.2 12619662
-0.0019913709 0.022786325 0.2 12093832
-0.0010508785 0.022786325 0.2 10318193
-0.00010983424 0.022672396 0.19900002 11041146
0.00082595571 0.022672396 0.19900002 11303291
0.0017705987 0.022786325 0.2 11105912
0.002711091 0.022786325 0.2 11042175
0.0036515833 0.022786325 0.2 10713210
0.0045920755 0.022786325 0.2 11040630
0.0055325679 0.022786325 0.2 11696764
0.0064730607 0.022786325 0.2 12486280
0.0074506206 0.022900257 0.20100001 12485764
0.0083958162 0.022900257 0.20100001 12880522
0.0093410108 0.022900257 0.20100001 12617350
0.010286205 0.022900257 0.20100001 11959938
0.0112314 0.022900257 0.20100001 11696766
0.012176595 0.022900257 0.20100001 11236215
0.013121789 0.022900257 0.20100001 11236215
0.014066984 0.022900257 0.20100001 11499387
0.01501218 0.022900257 0.20100001 12486282
0.015957374 0.022900257 0.20100001 12552075
0.016902568 0.022900257 0.20100001 11564410
0.017758969 0.022786325 0.2 11301238
0.018699462 0.022786325 0.2 11630203
0.019639954 0.022786325 0.2 11959938
0.020580446 0.022786325 0.2 11236215
0.021520939 0.022786325 0.2 10973302
0.022461431 0.022786325 0.2 11039867
0.023401923 0.022786325 0.2 10908792
0.024342416 0.022786325 0.2 11501443
0.025282908 0.022786325 0.2 11303550
0.026223401 0.022786325 0.2 11501183
0.027163893 0.022786325 0.2 11830148
0.028104385 0.022786325 0.2 11961221
0.028899657 0.022672396 0.19900002 11895428
0.029835444 0.022672396 0.19900002 11698049
0.030771235 0.022672396 0.19900002 10842486
0.031707026 0.022672396 0.19900002 10908792
0.032642815 0.022672396 0.19900002 10974585
0.033578604 0.022672396 0.19900002 11040378
0.034514397 0.022672396 0.19900002 10711927
0.035450187 0.022672396 0.19900002 9857388
0.036568817 0.022786325 0.2 10054767
0.037509307 0.022786325 0.2 9988974
0.038642049 0.022900257 0.20100001 9265251
0.039587244 0.022900257 0.20100001 8871006
0.04053244 0.022900257 0.20100001 8542811
0.041477636 0.022900257 0.20100001 8411992
0.042422831 0.022900257 0.20100001 8280920
-0.0085748173 0.023726819 0.2 4933448
-0.0076724971 0.023845453 0.20100001 4733240
-0.006727302 0.023845453 0.20100001 8479332
-0.0057821069 0.023845453 0.20100001 10780286
-0.0048369123 0.023845453 0.20100001 11042429
-0.0038917174 0.023845453 0.20100001 11962246
-0.0029465226 0.023845453 0.20100001 12159365
-0.0020013277 0.023845453 0.20100001 12159365
-0.0010508785 0.023726819 0.2 11698047
-0.00011038617 0.023726819 0.2 11500668
0.00083010615 0.023726819 0.2 10974324
0.0017705987 0.023726819 0.2 10515572
0.002711091 0.023726819 0.2 11700875
0.0036515833 0.023726819 0.2 11502978
0.0046150358 0.023845453 0.20100001 11830660
0.0055602309 0.023845453 0.20100001 12093318
0.006505426 0.023845453 0.20100001 12487565
0.0074876887 0.023964087 0.20200001 12355209
0.008437586 0.023964087 0.20200001 12091522
0.0093874829 0.023964087 0.20200001 11959936
0.01033738 0.023964087 0.20200001 12026242
0.011287278 0.023964087 0.20200001 11631484
0.012237174 0.023964087 0.20200001 11302006
0.013187071 0.023964087 0.20200001 11564408
0.014136969 0.023964087 0.20200001 11630201
0.015086867 0.023964087 0.20200001 11761789
0.016036766 0.023964087 0.20200001 12353926
0.016986661 0.023964087 0.20200001 11894145
0.017936559 0.023964087 0.20200001 11104629
0.018886456 0.023964087 0.20200001 10775664
0.019836355 0.023964087 0.20200001 10776177
0.02078625 0.023964087 0.20200001 10776177
0.021736149 0.023964087 0.20200001 11500416
0.022686046 0.023964087 0.20200001 11763588
0.023635944 0.023964087 0.20200001 11698308
0.024464127 0.023845453 0.20100001 11632515
0.025409322 0.023845453 0.20100001 11237757
0.026354518 0.023845453 0.20100001 11040378
0.027299713 0.023845453 0.20100001 11435390
0.028244909 0.023845453 0.20100001 11764869
0.02904488 0.023726819 0.2 11764869
0.029985368 0.023726819 0.2 11567490
0.030925861 0.023726819 0.2 11764869
0.031866353 0.023726819 0.2 11304318
0.032642815 0.023608185 0.19900002 11238271
0.033747341 0.023726819 0.2 10910076
0.034687832 0.023726819 0.2 10844796
0.035628326 0.023726819 0.2 10186868
0.036751658 0.023845453 0.20100001 9661294
0.037696853 0.023845453 0.20100001 9200741
0.0388343 0.023964087 0.20200001 8805213
0.039784197 0.023964087 0.20200001 8608604
0.040734094 0.023964087 0.20200001 8872543
0.041683994 0.023964087 0.20200001 8281690
0.042422831 0.023845453 0.20100001 7821400
-0.0086605661 0.024913983 0.20200001 4276547
-0.0076724971 0.024790647 0.20100001 4078911
-0.0067607709 0.024913983 0.20200001 4208442
-0.0058108736 0.024913983 0.20200001 4994618
-0.0048609762 0.024913983 0.20200001 8939883
-0.0039110789 0.024913983 0.20200001 11570056
-0.002961182 0.024913983 0.20200001 11174013
-0.0020013277 0.024790647 0.20100001 11108220
-0.0010508785 0.02466731 0.2 11238777
-0.00011038617 0.02466731 0.2 11633021
0.00083010615 0.02466731 0.2 11962246
0.0017705987 0.02466731 0.2 10253944
0.0027246466 0.024790647 0.20100001 10977152
0.0036698412 0.024790647 0.20100001 11239295
0.0046379967 0.024913983 0.20200001 11634051
0.005587894 0.024913983 0.20200001 11830660
0.0065377913 0.024913983 0.20200001 11764869
0.0075247562 0.02503732 0.20300001 11698562
0.0084793568 0.02503732 0.20300001 11764355
0.0094339559 0.02503732 0.20300001 11501183
0.010388555 0.02503732 0.20300001 11566463
0.011343156 0.02503732 0.20300001 11763840
0.012297755 0.02503732 0.20300001 12025729
0.013252354 0.02503732 0.20300001 11893373
0.014206954 0.02503732 0.20300001 11564408
0.015161554 0.02503732 0.20300001 11695480
0.016116155 0.02503732 0.20300001 11235443
0.017070753 0.02503732 0.20300001 11104627
0.018025354 0.02503732 0.20300001 11040117
0.018979954 0.02503732 0.20300001 12027012
0.019934554 0.02503732 0.20300001 11566463
0.020889154 0.02503732 0.20300001 10974326
0.021843754 0.02503732 0.20300001 12289932
0.022798354 0.02503732 0.20300001 11961221
0.023752954 0.02503732 0.20300001 11434877
0.024707552 0.02503732 0.20300001 11303291
0.025662152 0.02503732 0.20300001 11237757
0.026616752 0.02503732 0.20300001 11171964
0.027435534 0.024913983 0.20200001 11172478
0.028385431 0.024913983 0.20200001 11501443
0.029190104 0.024790647 0.20100001 11172732
0.030135296 0.024790647 0.20100001 11238525
0.031080492 0.024790647 0.20100001 11107709
0.031866353 0.02466731 0.2 10845050
0.032806847 0.02466731 0.2 11042429
0.033747341 0.02466731 0.2 10450038
0.03486127 0.024790647 0.20100001 9528936
0.035806466 0.024790647 0.20100001 9134950
0.036934502 0.024913983 0.20200001 9200743
0.037884403 0.024913983 0.20200001 8872291
0.0388343 0.024913983 0.20200001 8872291
0.039784197 0.024913983 0.20200001 8346459
0.040734094 0.024913983 0.20200001 8150104
0.041683994 0.024913983 0.20200001 7558228
-0.0077106687 0.02586388 0.20200001 3816768
-0.0067942403 0.025991919 0.20300001 4013375
-0.0058684074 0.026119959 0.20400001 4276290
-0.0048850407 0.025991919 0.20300001 4536380
-0.0039304411 0.025991919 0.20300001 6770515
-0.002961182 0.02586388 0.20200001 10057849
-0.0020013277 0.02573584 0.20100001 11043972
-0.0010508785 0.0256078 0.2 11898506
-0.00011038617 0.0256078 0.2 11634564
0.00083010615 0.0256078 0.2 11174785
0.0017705987 0.0256078 0.2 11505297
0.0027246466 0.02573584 0.20100001 11109251
0.0036880991 0.02586388 0.20200001 11371392
0.004660957 0.025991919 0.20300001 11173500
0.0056155566 0.025991919 0.20300001 11304316
0.0065701571 0.025991919 0.20300001 11172730
0.0075618243 0.026119959 0.20400001 10909560
0.0085211266 0.026119959 0.20400001 11041146
0.0094804289 0.026119959 0.20400001 10843767
0.01043973 0.026119959 0.20400001 10449009
0.011399033 0.026119959 0.20400001 10974839
0.012358335 0.026119959 0.20400001 11170935
0.013317637 0.026119959 0.20400001 11499385
0.014276939 0.026119959 0.20400001 11959936
0.015236243 0.026119959 0.20400001 11762557
0.016195545 0.026119959 0.20400001 11696764
0.017154846 0.026119959 0.20400001 11499898
0.01811415 0.026119959 0.20400001 11434877
0.019073451 0.026119959 0.20400001 11566463
0.020032754 0.026119959 0.20400001 11237757
0.020992056 0.026119959 0.20400001 11698308
0.021951359 0.026119959 0.20400001 11698308
0.02291066 0.026119959 0.20400001 11698562
0.023869963 0.026119959 0.20400001 11435390
0.024829265 0.026119959 0.20400001 11369597
0.025788568 0.026119959 0.20400001 11369857
0.026747869 0.026119959 0.20400001 11040892
0.027707173 0.026119959 0.20400001 10909306
0.028525952 0.025991919 0.20300001 10646134
0.029480552 0.025991919 0.20300001 10581111
0.03043515 0.025991919 0.20300001 10646904
0.031235121 0.02586388 0.20200001 10976382
0.032025687 0.02573584 0.20100001 10516601
0.033747341 0.0256078 0.2 9200741
0.03486127 0.02573584 0.20100001 9069157
0.035806466 0.02573584 0.20100001 8872291
0.036934502 0.02586388 0.20200001 8675426
0.037884403 0.02586388 0.20200001 8413024
0.0388343 0.02586388 0.20200001 8281440
0.039784197 0.02586388 0.20200001 7624021
0.040734094 0.02586388 0.20200001 6901581
-0.0068277097 0.02707926 0.20400001 4211524
-0.0058684074 0.02707926 0.20400001 4079938
-0.0049091051 0.02707926 0.20400001 4145731
-0.0039304411 0.026946519 0.20300001 4407106
-0.0029758413 0.026946519 0.20300001 5061441
-0.0020112847 0.026813777 0.20200001 6308933
-0.0010508785 0.026548294 0.2 9597298
-0.00011038617 0.026548294 0.2 9201768
0.00083010615 0.026548294 0.2 10584454
0.0017705987 0.026548294 0.2 11373970
0.0027246466 0.026681036 0.20100001 10715009
0.0036880991 0.026813777 0.20200001 11831945
0.004660957 0.026946519 0.20300001 10910841
0.0056432197 0.02707926 0.20400001 10647156
0.0066025225 0.02707926 0.20400001 10647158
0.0075988919 0.027212001 0.20500001 10449525
0.0085628973 0.027212001 0.20500001 10317939
0.0095269019 0.027212001 0.20500001 10449525
0.010490905 0.027212001 0.20500001 10974837
0.011454911 0.027212001 0.20500001 11895939
0.012418916 0.027212001 0.20500001 11961219
0.01338292 0.027212001 0.20500001 11434875
0.014346925 0.027212001 0.20500001 11105910
0.01531093 0.027212001 0.20500001 11105912
0.016274935 0.027212001 0.20500001 11105912
0.017238939 0.027212001 0.20500001 11040119
0.018202944 0.027212001 0.20500001 11369597
0.019166948 0.027212001 0.20500001 11501183
0.020130955 0.027212001 0.20500001 11172218
0.021094957 0.027212001 0.20500001 11830148
0.022058962 0.027212001 0.20500001 11829894
0.023022968 0.027212001 0.20500001 11501443
0.023986973 0.027212001 0.20500001 11107455
0.024950977 0.027212001 0.20500001 11107455
0.025914982 0.027212001 0.20500001 10712699
0.026878987 0.027212001 0.20500001 10778490
0.027842993 0.027212001 0.20500001 10844796
0.028806997 0.027212001 0.20500001 10976382
0.029625777 0.02707926 0.20400001 10582394
0.030585077 0.02707926 0.20400001 10385015
0.031235121 0.026813777 0.20200001 10385528
0.032025687 0.026681036 0.20100001 10254458
0.035208151 0.026946519 0.20300001 8478045
0.036162753 0.026946519 0.20300001 8149850
0.040178102 0.02707926 0.20400001 5785669
-0.0058684074 0.028038563 0.20400001 3817536
-0.0049091051 0.028038563 0.20400001 3620157
-0.0039498028 0.028038563 0.20400001 3620157
-0.0029758413 0.027901119 0.20300001 3815996
-0.0020112847 0.027763674 0.20200001 4143934
-0.0010508785 0.027488787 0.2 4337971
-0.00011038617 0.027488787 0.2 5915467
0.00083010615 0.027488787 0.2 7362403
0.0017705987 0.027488787 0.2 10651281
0.0027246466 0.027626231 0.20100001 9597559
0.0036880991 0.027763674 0.20200001 10253942
0.004660957 0.027901119 0.20300001 10582648
0.0056432197 0.028038563 0.20400001 10582648
0.0066348878 0.028176008 0.20500001 10713464
0.0076359599 0.028313452 0.20600002 10385015
0.0086046671 0.028313452 0.20600002 10713980
0.0095733739 0.028313452 0.20600002 10582394
0.010542081 0.028313452 0.20600002 11239295
0.011510788 0.028313452 0.20600002 11501697
0.012479495 0.028313452 0.20600002 11238525
0.013448202 0.028313452 0.20600002 11303804
0.01441691 0.028313452 0.20600002 11304318
0.015385618 0.028313452 0.20600002 10712181
0.016354324 0.028313452 0.20600002 10647158
0.017407123 0.028450895 0.20700002 10975869
0.018380534 0.028450895 0.20700002 10843767
0.019353945 0.028450895 0.20700002 11238523
0.020327354 0.028450895 0.20700002 11501695
0.021300763 0.028450895 0.20700002 11304316
0.022274172 0.028450895 0.20700002 11107709
0.023247583 0.028450895 0.20700002 10845820
0.024220992 0.028450895 0.20700002 10319737
0.025194401 0.028450895 0.20700002 10385530
0.026167812 0.028450895 0.20700002 10714495
0.027141221 0.028450895 0.20700002 10451323
0.027978811 0.028313452 0.20600002 10319737
0.028947519 0.028313452 0.20600002 10320249
0.029771002 0.028176008 0.20500001 10517628
0.030735005 0.028176008 0.20500001 10255226
0.035434708 0.028863227 0.21000001 8347744
-0.0039691646 0.029140012 0.20500001 3817017
-0.0029758413 0.028855719 0.20300001 3881787
-0.0020013277 0.028571425 0.20100001 3815994
-0.0010508785 0.028429279 0.2 3815994
-0.00011038617 0.028429279 0.2 4472901
0.00083010615 0.028429279 0.2 4801099
0.0017705987 0.028429279 0.2 6244434
0.0027246466 0.028571425 0.20100001 7296857
0.0036880991 0.028713573 0.20200001 8151137
0.004660957 0.028855719 0.20300001 8676196
0.0056708823 0.029140012 0.20500001 9267563
0.0066348878 0.029140012 0.20500001 9990770
0.0076359599 0.02928216 0.20600002 10846593
0.0086464379 0.029424306 0.20700002 11109765
0.0096198469 0.029424306 0.20700002 10780800
0.010593256 0.029424306 0.20700002 10911872
0.011566667 0.029424306 0.20700002 10911359
0.012540076 0.029424306 0.20700002 10844796
0.013513485 0.029424306 0.20700002 10647417
0.014486895 0.029424306 0.20700002 10647417
0.015460305 0.029424306 0.20700002 10713210
0.016433716 0.029424306 0.20700002 11766152
0.017491216 0.02956645 0.208 10713464
0.018469328 0.02956645 0.208 10581624
0.01944744 0.02956645 0.208 11371140
0.020425553 0.02956645 0.208 11436933
0.021403663 0.02956645 0.208 11042175
0.022381775 0.02956645 0.208 10450808
0.023359889 0.02956645 0.208 10188149
0.024338001 0.02956645 0.208 10451321
0.025316112 0.02956645 0.208 11043974
0.026294224 0.02956645 0.208 10978181
0.027272336 0.02956645 0.208 10846595
0.028114632 0.029424306 0.20700002 10386814
0.029088041 0.029424306 0.20700002 10452605
0.029916227 0.02928216 0.20600002 10584704
0.030735005 0.029140012 0.20500001 9005674
-0.0029758413 0.029810319 0.20300001 3355696
-0.0020013277 0.029516621 0.20100001 3618868
-0.001056133 0.029516621 0.20100001 4013624
-0.00011038617 0.029369771 0.2 3685178
0.00083010615 0.029369771 0.2 3552572
0.0017705987 0.029369771 0.2 4669765
0.0027246466 0.029516621 0.20100001 4865598
0.0036880991 0.02966347 0.20200001 5062207
0.004660957 0.029810319 0.20300001 5784647
0.0056708823 0.030104017 0.20500001 7495265
0.0066348878 0.030104017 0.20500001 9139061
0.0076359599 0.030250866 0.20600002 10322302
0.0086464379 0.030397717 0.20700002 8676707
0.0096198469 0.030397717 0.20700002 8018777
0.010593256 0.030397717 0.20700002 8084057
0.011566667 0.030397717 0.20700002 8084059
0.012540076 0.030397717 0.20700002 9398897
0.013513485 0.030397717 0.20700002 10715779
0.014486895 0.030397717 0.20700002 10518400
0.015460305 0.030397717 0.20700002 10780804
0.016433716 0.030397717 0.20700002 10715009
0.017491216 0.030544562 0.208 10715009
0.018469328 0.030544562 0.208 10715007
0.01944744 0.030544562 0.208 10583421
0.020425553 0.030544562 0.208 10649214
0.021403663 0.030544562 0.208 10715009
0.022381775 0.030544562 0.208 10255228
0.023359889 0.030544562 0.208 10978951
0.024338001 0.030544562 0.208 10978951
0.025316112 0.030544562 0.208 10848648
0.02642064 0.030691411 0.20900001 10980232
0.027272336 0.030544562 0.208 11045257
0.028114632 0.030397717 0.20700002 9466743
0.029088041 0.030397717 0.20700002 8150885
0.030061452 0.030397717 0.20700002 7954019
-0.00011038617 0.030310264 0.2 3159087
0.00083010615 0.030310264 0.2 3619387
0.0017705987 0.030310264 0.2 8357251
