# .PCD v0.7 - Point Cloud Data file format
VERSION 0.7
FIELDS x y z rgb
SIZE 4 4 4 4
TYPE F F F U
COUNT 1 1 1 1
WIDTH 1101
HEIGHT 1
VIEWPOINT 0 0 0 1 0 0 0
POINTS 1101
DATA ascii
-0.011083151 0.010196598 0.21200001 5782597
-0.010086229 0.010196598 0.21200001 8874870
-0.0090893069 0.010196598 0.21200001 9071469
-0.0080542136 0.010148501 0.21100001 11766150
-0.0070285243 0.010100404 0.21000001 11501181
-0.0060122409 0.010052307 0.20900001 11435129
-0.005029426 0.010052307 0.20900001 11304570
-0.0040272498 0.010004209 0.208 10976634
-0.0030491378 0.010004209 0.208 11632767
-0.0020710258 0.010004209 0.208 12945286
-0.0010929137 0.010004209 0.208 12351094
-0.00011480161 0.010004209 0.208 12350067
0.00086331042 0.010004209 0.208 13994892
0.0018325697 0.0099561131 0.20700002 13797513
0.0028059795 0.0099561131 0.20700002 13336962
0.003779389 0.0099561131 0.20700002 13337221
0.0047298381 0.0099080158 0.20600002 15184056
0.0056985454 0.0099080158 0.20600002 16774907
0.0066672531 0.0099080158 0.20600002 16771563
0.0075988919 0.0098599186 0.20500001 15644096
0.0085628973 0.0098599186 0.20500001 16759752
0.0095269019 0.0098599186 0.20500001 16760779
0.01043973 0.0098118214 0.20400001 16760009
0.011343156 0.0097637242 0.20300001 14983597
0.012297755 0.0097637242 0.20300001 10774126
0.013187071 0.0097156269 0.20200001 14328745
0.014136969 0.0097156269 0.20200001 15447478
0.015086867 0.0097156269 0.20200001 14985646
0.015957374 0.0096675297 0.20100001 13537948
0.016902568 0.0096675297 0.20100001 12156297
0.017847763 0.0096675297 0.20100001 8802135
0.018792959 0.0096675297 0.20100001 8606291
0.019639954 0.0096194325 0.2 8147024
0.020580446 0.0096194325 0.2 7097929
0.021520939 0.0096194325 0.2 7098445
0.022461431 0.0096194325 0.2 6638148
0.023401923 0.0096194325 0.2 6439997
0.024342416 0.0096194325 0.2 5979446
0.025156494 0.0095713353 0.19900002 5913401
0.026092285 0.0095713353 0.19900002 6506308
0.027028076 0.0095713353 0.19900002 7559509
0.027823344 0.0095232381 0.19800001 6902349
0.028754432 0.0095232381 0.19800001 6836556
0.029685516 0.0095232381 0.19800001 6374976
0.030616604 0.0095232381 0.19800001 7624271
0.031547692 0.0095232381 0.19800001 7295306
0.03247878 0.0095232381 0.19800001 6174776
0.033409867 0.0095232381 0.19800001 6107187
0.034340955 0.0095232381 0.19800001 5646120
0.035272043 0.0095232381 0.19800001 5973286
0.036203127 0.0095232381 0.19800001 5576472
0.037134215 0.0095232381 0.19800001 8600893
0.038065303 0.0095232381 0.19800001 9192260
0.038996391 0.0095232381 0.19800001 9917527
0.039927479 0.0095232381 0.19800001 10115165
0.040652212 0.0094751408 0.19700001 10641509
0.041367538 0.0094270436 0.19600001 14392480
0.04228922 0.0094270436 0.19600001 12421772
0.042990435 0.0093789464 0.19500001 7099478
0.043682251 0.0093308492 0.19400001 4999243
0.04459453 0.0093308492 0.19400001 4606282
0.045272235 0.0092827519 0.193 4540489
0.046179809 0.0092827519 0.193 4606284
0.04684341 0.0092346547 0.192 4672077
-0.01499975 0.01114072 0.21100001 4472901
-0.01400753 0.01114072 0.21100001 4864062
-0.013015311 0.01114072 0.21100001 10582396
-0.012023091 0.01114072 0.21100001 14789550
-0.011030871 0.01114072 0.21100001 16762324
-0.010038652 0.01114072 0.21100001 14854075
-0.0090464326 0.01114072 0.21100001 13669022
-0.0080160415 0.011087921 0.21000001 13271430
-0.0070285243 0.011087921 0.21000001 12350069
-0.0060122409 0.011035121 0.20900001 11956338
-0.005005362 0.010982322 0.208 11039088
-0.0040272498 0.010982322 0.208 10842738
-0.0030491378 0.010982322 0.208 11827068
-0.0020710258 0.010982322 0.208 13010059
-0.0010929137 0.010982322 0.208 13337223
-0.00011480161 0.010982322 0.208 13664644
0.00086331042 0.010982322 0.208 15177883
0.0018325697 0.010929522 0.20700002 14125195
0.0028059795 0.010929522 0.20700002 14060169
0.0037611309 0.010876723 0.20600002 13929356
0.0047298381 0.010876723 0.20600002 15776443
0.0056985454 0.010876723 0.20600002 16773621
0.0066348878 0.010823923 0.20500001 16770537
0.0075988919 0.010823923 0.20500001 16302024
0.0085628973 0.010823923 0.20500001 12550024
0.0095269019 0.010823923 0.20500001 13339540
0.01043973 0.010771123 0.20400001 10247269
0.011343156 0.010718323 0.20300001 9984610
0.012297755 0.010718323 0.20300001 10051687
0.013187071 0.010665524 0.20200001 9395040
0.014136969 0.010665524 0.20200001 8540758
0.015086867 0.010665524 0.20200001 8608086
0.030616604 0.010454325 0.19800001 5519667
0.031547692 0.010454325 0.19800001 5650229
0.03247878 0.010454325 0.19800001 6306362
0.033409867 0.010454325 0.19800001 4856350
0.034340955 0.010454325 0.19800001 5709601
0.035272043 0.010454325 0.19800001 9786970
0.036203127 0.010454325 0.19800001 11956340
0.037134215 0.010454325 0.19800001 11495789
0.038065303 0.010454325 0.19800001 10641509
0.038996391 0.010454325 0.19800001 11366517
0.039927479 0.010454325 0.19800001 12352897
0.040652212 0.010401526 0.19700001 14786468
0.041367538 0.010348726 0.19600001 14458273
0.04228922 0.010348726 0.19600001 12947346
0.042990435 0.010295927 0.19500001 4862518
0.043682251 0.010243126 0.19400001 3815739
0.04459453 0.010243126 0.19400001 4079168
0.045272235 0.010190327 0.193 4210754
0.046179809 0.010190327 0.193 3618358
0.04684341 0.010137527 0.192 3947576
-0.017145175 0.012247944 0.21300001 4210756
-0.016067762 0.012190443 0.21200001 4207931
-0.01499975 0.01213294 0.21100001 8412772
-0.01400753 0.01213294 0.21100001 14854576
-0.013015311 0.01213294 0.21100001 15113377
-0.012023091 0.01213294 0.21100001 15375525
-0.011030871 0.01213294 0.21100001 15315131
-0.010038652 0.01213294 0.21100001 16772084
-0.0090035582 0.012075438 0.21000001 16764888
-0.0080160415 0.012075438 0.21000001 12744832
-0.0069950554 0.012017936 0.20900001 12875645
-0.0059834737 0.011960434 0.208 12283506
-0.005005362 0.011960434 0.208 11366254
-0.0040272498 0.011960434 0.208 11170672
-0.0030491378 0.011960434 0.208 16765143
-0.0020710258 0.011960434 0.208 16767713
-0.0010929137 0.011960434 0.208 16299455
-0.00011480161 0.011960434 0.208 15705771
0.00085915992 0.011902932 0.20700002 15836326
0.0018325697 0.011902932 0.20700002 14849431
0.0028059795 0.011902932 0.20700002 15573926
0.0037611309 0.01184543 0.20600002 14259095
0.0047298381 0.01184543 0.20600002 14062747
0.0056985454 0.01184543 0.20600002 16762056
0.0066348878 0.011787928 0.20500001 15840953
0.0075988919 0.011787928 0.20500001 14261669
0.0085628973 0.011787928 0.20500001 11038582
0.0095269019 0.011787928 0.20500001 11038836
0.010490905 0.011787928 0.20500001 9855845
0.02953559 0.011327911 0.19700001 5783350
0.030461974 0.011327911 0.19700001 4663073
0.031547692 0.011385413 0.19800001 9396319
0.03247878 0.011385413 0.19800001 10183009
0.033409867 0.011385413 0.19800001 11957623
0.034340955 0.011385413 0.19800001 12088696
0.035272043 0.011385413 0.19800001 11692914
0.036203127 0.011385413 0.19800001 11692916
0.037134215 0.011385413 0.19800001 12285823
0.038065303 0.011385413 0.19800001 12681092
0.038996391 0.011385413 0.19800001 14260894
0.039927479 0.011385413 0.19800001 14853031
0.040652212 0.011327911 0.19700001 14655652
0.041367538 0.011270409 0.19600001 12484996
0.04228922 0.011270409 0.19600001 11830408
0.042990435 0.011212907 0.19500001 3743784
0.043682251 0.011155404 0.19400001 3156526
0.04459453 0.011155404 0.19400001 3023908
0.045272235 0.011097902 0.193 6444630
0.046179809 0.011097902 0.193 9800073
0.04684341 0.0110404 0.192 5920083
-0.017145175 0.013249569 0.21300001 10262172
-0.016067762 0.013187364 0.21200001 12164769
-0.01499975 0.01312516 0.21100001 15643322
-0.01400753 0.01312516 0.21100001 15046560
-0.012953627 0.013062955 0.21000001 16032422
-0.01196611 0.013062955 0.21000001 16360619
-0.010978593 0.013062955 0.21000001 14983597
-0.0099910758 0.013062955 0.21000001 16774393
-0.0090035582 0.013062955 0.21000001 16774646
-0.0079778703 0.01300075 0.20900001 13338770
-0.0069950554 0.01300075 0.20900001 14192021
-0.0059834737 0.012938545 0.208 14519955
-0.005005362 0.012938545 0.208 11693164
-0.0040272498 0.012938545 0.208 12154998
-0.0030491378 0.012938545 0.208 13867935
-0.0020710258 0.012938545 0.208 16768740
-0.0010929137 0.012938545 0.208 16769256
-0.00011480161 0.012938545 0.208 12350592
0.00085915992 0.012876341 0.20700002 13205635
0.0018325697 0.012876341 0.20700002 14389650
0.0028059795 0.012876341 0.20700002 13666186
0.0037611309 0.012814137 0.20600002 14983847
0.0047298381 0.012814137 0.20600002 13538716
0.0056985454 0.012814137 0.20600002 11630973
0.0066348878 0.012751932 0.20500001 10184810
0.0075988919 0.012751932 0.20500001 8212565
0.0085628973 0.012751932 0.20500001 7555918
0.0095269019 0.012751932 0.20500001 7031371
0.01043973 0.012689727 0.20400001 6637126
0.011343156 0.012627522 0.20300001 6637126
0.012237174 0.012565318 0.20200001 6505538
0.013187071 0.012565318 0.20200001 6176060
0.014136969 0.012565318 0.20200001 6439234
0.015086867 0.012565318 0.20200001 5978681
0.023284916 0.012378705 0.19900002 5252897
0.027682822 0.012254296 0.19700001 5911597
0.028609207 0.012254296 0.19700001 5845034
0.02953559 0.012254296 0.19700001 6239540
0.030461974 0.012254296 0.19700001 7949906
0.031547692 0.012316501 0.19800001 10644078
0.03247878 0.012316501 0.19800001 11956856
0.033409867 0.012316501 0.19800001 11496559
0.034340955 0.012316501 0.19800001 12154489
0.035272043 0.012316501 0.19800001 12548993
0.036203127 0.012316501 0.19800001 13008776
0.037134215 0.012316501 0.19800001 13601683
0.038065303 0.012316501 0.19800001 13799573
0.038996391 0.012316501 0.19800001 14457503
0.039927479 0.012316501 0.19800001 14195101
0.040652212 0.012254296 0.19700001 13932442
0.041367538 0.012192091 0.19600001 12749454
0.04228922 0.012192091 0.19600001 6964294
0.042990435 0.012129886 0.19500001 4601908
0.043682251 0.012067682 0.19400001 8419697
0.04459453 0.012067682 0.19400001 8550518
-0.017145175 0.014251193 0.21300001 5718339
-0.016067762 0.014184286 0.21200001 13541026
-0.01499975 0.014117379 0.21100001 14128025
-0.013941144 0.014050472 0.21000001 14980506
-0.012953627 0.014050472 0.21000001 15175057
-0.01196611 0.014050472 0.21000001 14122369
-0.010978593 0.014050472 0.21000001 13072518
-0.0099910758 0.014050472 0.21000001 16773367
-0.0090035582 0.014050472 0.21000001 16774647
-0.0079778703 0.013983564 0.20900001 14524843
-0.0069950554 0.013983564 0.20900001 12481151
-0.0059834737 0.013916657 0.208 12940925
-0.005005362 0.013916657 0.208 11166052
-0.0040272498 0.013916657 0.208 11101801
-0.0030491378 0.013916657 0.208 10905712
-0.0020710258 0.013916657 0.208 16763604
-0.0010929137 0.013916657 0.208 16762576
-0.00011480161 0.013916657 0.208 10903398
0.00085915992 0.013849751 0.20700002 12745854
0.0018325697 0.013849751 0.20700002 11495785
0.0028059795 0.013849751 0.20700002 10247003
0.0037611309 0.013782844 0.20600002 8342606
0.0047298381 0.013782844 0.20600002 6962750
0.0056985454 0.013782844 0.20600002 6831164
0.0066348878 0.013715937 0.20500001 6830910
0.0075988919 0.013715937 0.20500001 7029826
0.0085628973 0.013715937 0.20500001 6503741
0.0095269019 0.013715937 0.20500001 6438202
0.01043973 0.01364903 0.20400001 6701120
0.011343156 0.013582123 0.20300001 6765630
0.012237174 0.013515215 0.20200001 9921638
0.013187071 0.013515215 0.20200001 10513005
0.014136969 0.013515215 0.20200001 9722724
0.015086867 0.013515215 0.20200001 7750730
0.016036766 0.013515215 0.20200001 7093052
0.016986661 0.013515215 0.20200001 8014668
0.017847763 0.013448308 0.20100001 6369327
0.018792959 0.013448308 0.20100001 5973286
0.019639954 0.013381401 0.2 7420219
0.020477545 0.013314495 0.19900002 11630201
0.021413336 0.013314495 0.19900002 13606559
0.022349125 0.013314495 0.19900002 10251630
0.023284916 0.013314495 0.19900002 8474444
0.024220705 0.013314495 0.19900002 8602948
0.025156494 0.013314495 0.19900002 7879225
0.026092285 0.013314495 0.19900002 7550773
0.027028076 0.013314495 0.19900002 8472391
0.027823344 0.013247588 0.19800001 11037802
0.028754432 0.013247588 0.19800001 10053222
0.029685516 0.013247588 0.19800001 13278626
0.030616604 0.013247588 0.19800001 15777990
0.031547692 0.013247588 0.19800001 16763087
0.03247878 0.013247588 0.19800001 14325404
0.033409867 0.013247588 0.19800001 13864337
0.034340955 0.013247588 0.19800001 14259095
0.035272043 0.013247588 0.19800001 14456474
0.036203127 0.013247588 0.19800001 14324888
0.037134215 0.013247588 0.19800001 14193818
0.038065303 0.013247588 0.19800001 14391710
0.038996391 0.013247588 0.19800001 14919078
0.039927479 0.013247588 0.19800001 14327454
0.040858567 0.013247588 0.19800001 12091776
0.041367538 0.013113773 0.19600001 11172216
0.04228922 0.013113773 0.19600001 11175298
-0.017145175 0.015252817 0.21300001 9398122
-0.016067762 0.015181208 0.21200001 13340046
-0.01499975 0.015109599 0.21100001 13600136
-0.013941144 0.015037988 0.21000001 15043730
-0.012953627 0.015037988 0.21000001 12541795
-0.01196611 0.015037988 0.21000001 13002346
-0.010978593 0.015037988 0.21000001 13728640
-0.0099910758 0.015037988 0.21000001 15707059
-0.0090035582 0.015037988 0.21000001 15839928
-0.0079778703 0.014966379 0.20900001 12745086
-0.0069950554 0.014966379 0.20900001 13401474
-0.0059834737 0.01489477 0.208 11492707
-0.005005362 0.01489477 0.208 10377308
-0.0040272498 0.01489477 0.208 12549508
-0.0030491378 0.01489477 0.208 10971505
-0.0020710258 0.01489477 0.208 9392473
-0.0010929137 0.01489477 0.208 8799055
-0.00011480161 0.01489477 0.208 9982814
0.00085915992 0.014823161 0.20700002 9785941
0.0018325697 0.014823161 0.20700002 6694953
0.0028059795 0.014823161 0.20700002 7419703
0.0037611309 0.014751552 0.20600002 7158591
0.0047298381 0.014751552 0.20600002 6569023
0.0056985454 0.014751552 0.20600002 5647923
0.0066348878 0.014679941 0.20500001 5449774
0.0075988919 0.014679941 0.20500001 6303284
0.0085628973 0.014679941 0.20500001 9131868
0.0095269019 0.014679941 0.20500001 10710130
0.01043973 0.014608332 0.20400001 11170168
0.011343156 0.014536723 0.20300001 11827582
0.012297755 0.014536723 0.20300001 11367029
0.013252354 0.014536723 0.20300001 10839919
0.014206954 0.014536723 0.20300001 16763349
0.015086867 0.014465113 0.20200001 16761807
0.016036766 0.014465113 0.20200001 9919585
0.016986661 0.014465113 0.20200001 10050909
0.017936559 0.014465113 0.20200001 10379874
0.018792959 0.014393503 0.20100001 11103597
0.019738154 0.014393503 0.20100001 11958652
0.020580446 0.014321893 0.2 16238539
0.021520939 0.014321893 0.2 16775157
0.022461431 0.014321893 0.2 16773362
0.023401923 0.014321893 0.2 16302276
0.024342416 0.014321893 0.2 12284535
0.025282908 0.014321893 0.2 12680831
0.026223401 0.014321893 0.2 11168105
0.027163893 0.014321893 0.2 12220793
0.027963866 0.014250285 0.19900002 12878471
0.028899657 0.014250285 0.19900002 12157576
0.029835444 0.014250285 0.19900002 16040910
0.030771235 0.014250285 0.19900002 16173266
0.031707026 0.014250285 0.19900002 16764628
0.032642815 0.014250285 0.19900002 15181228
0.033578604 0.014250285 0.19900002 13995921
0.034514397 0.014250285 0.19900002 14653081
0.035450187 0.014250285 0.19900002 14455702
0.036385972 0.014250285 0.19900002 14324888
0.037321765 0.014250285 0.19900002 14786209
0.038257554 0.014250285 0.19900002 15181480
0.039193343 0.014250285 0.19900002 13340559
0.040129136 0.014250285 0.19900002 11894397
0.040858567 0.014178676 0.19800001 10712179
0.041578598 0.014107066 0.19700001 7819342
0.04228922 0.014035456 0.19600001 7491920
-0.018061604 0.016178131 0.21200001 2693398
-0.017064681 0.016178131 0.21200001 12093318
-0.016067762 0.016178131 0.21200001 13471630
-0.01499975 0.016101819 0.21100001 13598851
-0.013941144 0.016025506 0.21000001 13134702
-0.012953627 0.016025506 0.21000001 13463921
-0.01196611 0.016025506 0.21000001 13727093
-0.010978593 0.016025506 0.21000001 13136239
-0.0099910758 0.016025506 0.21000001 12873583
-0.0090035582 0.016025506 0.21000001 11953510
-0.0079778703 0.015949193 0.20900001 11756649
-0.0069950554 0.015949193 0.20900001 10440789
-0.0059834737 0.015872883 0.208 9323591
-0.005005362 0.015872883 0.208 9522769
-0.0040272498 0.015872883 0.208 12879756
-0.0030491378 0.015872883 0.208 9853538
-0.0020710258 0.015872883 0.208 9720925
-0.0010929137 0.015872883 0.208 13339540
-0.00011480161 0.015872883 0.208 12550026
0.00085915992 0.01579657 0.20700002 10247523
0.0018325697 0.01579657 0.20700002 12944264
0.0028059795 0.01579657 0.20700002 13274766
0.0037611309 0.015720259 0.20600002 13735317
0.0047298381 0.015720259 0.20600002 13276309
0.0056985454 0.015720259 0.20600002 13408926
0.0066348878 0.015643947 0.20500001 15119031
0.0075988919 0.015643947 0.20500001 15710139
0.0085628973 0.015643947 0.20500001 12682377
0.0095269019 0.015643947 0.20500001 13603479
0.01043973 0.015567635 0.20400001 13800858
0.011343156 0.015491323 0.20300001 13800856
0.012297755 0.015491323 0.20300001 13340819
0.013252354 0.015491323 0.20300001 15644346
0.014206954 0.015491323 0.20300001 16764115
0.015086867 0.015415011 0.20200001 15577529
0.016036766 0.015415011 0.20200001 14523296
0.016986661 0.015415011 0.20200001 14129308
0.017936559 0.015415011 0.20200001 13339792
0.018792959 0.015338698 0.20100001 13800856
0.019738154 0.015338698 0.20100001 15577529
0.020683348 0.015338698 0.20100001 16772336
0.021628544 0.015338698 0.20100001 16772593
0.022573739 0.015338698 0.20100001 16771569
0.023518933 0.015338698 0.20100001 15447230
0.024464127 0.015338698 0.20100001 14588578
0.025282908 0.015262387 0.2 15114920
0.026223401 0.015262387 0.2 15181226
0.027163893 0.015262387 0.2 14852261
0.028104385 0.015262387 0.2 13931931
0.02904488 0.015262387 0.2 13604511
0.029985368 0.015262387 0.2 16764119
0.030925861 0.015262387 0.2 16239059
0.031866353 0.015262387 0.2 16766171
0.032806847 0.015262387 0.2 14655913
0.033747341 0.015262387 0.2 13207177
0.034687832 0.015262387 0.2 14718874
0.035628326 0.015262387 0.2 14193300
0.036568817 0.015262387 0.2 13536142
0.037509307 0.015262387 0.2 12023414
0.038449802 0.015262387 0.2 11827320
0.039390292 0.015262387 0.2 11434105
0.040330786 0.015262387 0.2 10580595
0.04127128 0.015262387 0.2 8739420
0.041578598 0.015033451 0.19700001 7885908
-0.017064681 0.017175052 0.21200001 12355977
-0.016067762 0.017175052 0.21200001 13666956
-0.01499975 0.017094038 0.21100001 13993609
-0.013941144 0.017013023 0.21000001 12938608
-0.012953627 0.017013023 0.21000001 13662070
-0.01196611 0.017013023 0.21000001 13267312
-0.010978593 0.017013023 0.21000001 12478827
-0.0099910758 0.017013023 0.21000001 12150635
-0.0090035582 0.017013023 0.21000001 11165027
-0.0079778703 0.016932009 0.20900001 12020859
-0.0069950554 0.016932009 0.20900001 11824250
-0.0059834737 0.016850995 0.208 12416637
-0.005005362 0.016850995 0.208 11629174
-0.0040272498 0.016850995 0.208 11893375
-0.0030491378 0.016850995 0.208 11301754
-0.0020710258 0.016850995 0.208 12024961
-0.0010929137 0.016850995 0.208 16766684
-0.00011480161 0.016850995 0.208 16766172
0.00085915992 0.016769981 0.20700002 15773111
0.0018325697 0.016769981 0.20700002 14786216
0.0028059795 0.016769981 0.20700002 14523037
0.0037611309 0.016688967 0.20600002 14852002
0.0047298381 0.016688967 0.20600002 13996693
0.0056985454 0.016688967 0.20600002 13932956
0.0066348878 0.016607951 0.20500001 16765907
0.0075988919 0.016607951 0.20500001 16766166
0.0085628973 0.016607951 0.20500001 13340305
0.0095269019 0.016607951 0.20500001 13734550
0.01043973 0.016526937 0.20400001 13470095
0.011399033 0.016526937 0.20400001 13602196
0.012297755 0.016445924 0.20300001 13866651
0.013252354 0.016445924 0.20300001 16763854
0.014206954 0.016445924 0.20300001 15972027
0.015161554 0.016445924 0.20300001 13274001
0.016116155 0.016445924 0.20300001 13206923
0.016986661 0.016364908 0.20200001 12483200
0.017936559 0.016364908 0.20200001 12285821
0.018886456 0.016364908 0.20200001 12549254
0.019836355 0.016364908 0.20200001 12355477
0.02078625 0.016364908 0.20200001 16773110
0.021736149 0.016364908 0.20200001 16773619
0.022686046 0.016364908 0.20200001 16768994
0.023635944 0.016364908 0.20200001 14853808
0.024585839 0.016364908 0.20200001 15246769
0.025409322 0.016283894 0.20100001 15180724
0.026354518 0.016283894 0.20100001 12747155
0.027299713 0.016283894 0.20100001 15181756
0.028244909 0.016283894 0.20100001 14523826
0.029190104 0.016283894 0.20100001 13407134
0.030135296 0.016283894 0.20100001 15448000
0.031080492 0.016283894 0.20100001 15382980
0.032025687 0.016283894 0.20100001 16766943
0.032970883 0.016283894 0.20100001 16696264
0.033916079 0.016283894 0.20100001 12484996
0.03486127 0.016283894 0.20100001 13667987
0.035806466 0.016283894 0.20100001 12747655
0.036751658 0.016283894 0.20100001 11827066
0.037696853 0.016283894 0.20100001 11302006
0.038642049 0.016283894 0.20100001 11500668
0.039784197 0.016364908 0.20200001 9725286
0.040734094 0.016364908 0.20200001 8739420
0.041683994 0.016364908 0.20200001 8411738
0.041789655 0.01604085 0.19800001 8084057
-0.017064681 0.018171974 0.21200001 12487563
-0.016067762 0.018171974 0.21200001 14654619
-0.01499975 0.018086256 0.21100001 13994122
-0.013941144 0.018000539 0.21000001 14190218
-0.012953627 0.018000539 0.21000001 13794433
-0.01196611 0.018000539 0.21000001 13531261
-0.010978593 0.018000539 0.21000001 13927048
-0.0099910758 0.018000539 0.21000001 12809339
-0.0090035582 0.018000539 0.21000001 16364737
-0.0079778703 0.017914822 0.20900001 16770544
-0.0069950554 0.017914822 0.20900001 16766944
-0.0059834737 0.017829105 0.208 13010575
-0.005005362 0.017829105 0.208 13208721
-0.0040272498 0.017829105 0.208 13670302
-0.0030491378 0.017829105 0.208 13012887
-0.0020710258 0.017829105 0.208 16764887
-0.0010929137 0.017829105 0.208 16765141
-0.00011480161 0.017829105 0.208 16766687
0.00085915992 0.01774339 0.20700002 13931161
0.0018325697 0.01774339 0.20700002 14917541
0.0028059795 0.01774339 0.20700002 15115174
0.003779389 0.01774339 0.20700002 14984101
0.0047298381 0.017657673 0.20600002 14720929
0.0056985454 0.017657673 0.20600002 14260894
0.0066672531 0.017657673 0.20600002 16768478
0.0075988919 0.017571956 0.20500001 16769251
0.0085628973 0.017571956 0.20500001 14391964
0.0095269019 0.017571956 0.20500001 14523037
0.010490905 0.017571956 0.20500001 14654623
0.011399033 0.017486239 0.20400001 14391962
0.012358335 0.017486239 0.20400001 14523550
0.013317637 0.017486239 0.20400001 12944518
0.014276939 0.017486239 0.20400001 14522783
0.015236243 0.017486239 0.20400001 13732497
0.016116155 0.017400522 0.20300001 13666958
0.017070753 0.017400522 0.20300001 13075591
0.018025354 0.017400522 0.20300001 12417659
0.018979954 0.017400522 0.20300001 12680840
0.019934554 0.017400522 0.20300001 13471389
0.020889154 0.017400522 0.20300001 13009805
0.021843754 0.017400522 0.20300001 13471380
0.022798354 0.017400522 0.20300001 15379377
0.023752954 0.017400522 0.20300001 14523044
0.024707552 0.017400522 0.20300001 15246767
0.025535738 0.017314805 0.20200001 16432074
0.026485635 0.017314805 0.20200001 15050684
0.027435534 0.017314805 0.20200001 16766957
0.028385431 0.017314805 0.20200001 15906498
0.029335327 0.017314805 0.20200001 14591404
0.030285222 0.017314805 0.20200001 12486028
0.031235121 0.017314805 0.20200001 12880786
0.032185018 0.017314805 0.20200001 12353926
0.033134915 0.017314805 0.20200001 12156033
0.034084816 0.017314805 0.20200001 12024959
0.035034712 0.017314805 0.20200001 11302006
0.035984609 0.017314805 0.20200001 11104627
0.036934502 0.017314805 0.20200001 11302006
0.037884403 0.017314805 0.20200001 11631486
0.039026547 0.017400522 0.20300001 9922151
0.040178102 0.017486239 0.20400001 9660009
0.041137405 0.017486239 0.20400001 8938084
0.042303063 0.017571956 0.20500001 8083289
-0.017064681 0.019168897 0.21200001 8475735
-0.016067762 0.019168897 0.21200001 14984097
-0.01499975 0.019078476 0.21100001 15113632
-0.013941144 0.018988056 0.21000001 14059404
-0.012953627 0.018988056 0.21000001 16757947
-0.01196611 0.018988056 0.21000001 16758203
-0.010978593 0.018988056 0.21000001 16757174
-0.0099910758 0.018988056 0.21000001 16691639
-0.0090035582 0.018988056 0.21000001 14983597
-0.0079778703 0.018897638 0.20900001 16768228
-0.0069950554 0.018897638 0.20900001 16768484
-0.0059834737 0.018807217 0.208 14326948
-0.005005362 0.018807217 0.208 14260896
-0.0040272498 0.018807217 0.208 14261923
-0.0030491378 0.018807217 0.208 13538718
-0.0020710258 0.018807217 0.208 14721193
-0.0010929137 0.018807217 0.208 16761802
-0.00011480161 0.018807217 0.208 16562881
0.00085915992 0.018716799 0.20700002 14917541
0.0018325697 0.018716799 0.20700002 14852002
0.0028059795 0.018716799 0.20700002 13865107
0.003779389 0.018716799 0.20700002 14325658
0.0047527985 0.018716799 0.20700002 13997206
0.0056985454 0.018626381 0.20600002 13865620
0.0066672531 0.018626381 0.20600002 13866390
0.0076359599 0.018626381 0.20600002 13075591
0.0085628973 0.01853596 0.20500001 13536142
0.0095269019 0.01853596 0.20500001 13930900
0.010490905 0.01853596 0.20500001 13865105
0.011454911 0.01853596 0.20500001 12483452
0.012418916 0.01853596 0.20500001 12811647
0.01338292 0.01853596 0.20500001 12680063
0.014346925 0.01853596 0.20500001 12285051
0.01531093 0.01853596 0.20500001 13206155
0.016195545 0.018445542 0.20400001 13141643
0.017154846 0.018445542 0.20400001 13405069
0.01811415 0.018445542 0.20400001 13339274
0.019073451 0.018445542 0.20400001 13470860
0.020032754 0.018445542 0.20400001 13207436
0.020992056 0.018445542 0.20400001 13274253
0.021951359 0.018445542 0.20400001 13471378
0.02291066 0.018445542 0.20400001 14523296
0.023869963 0.018445542 0.20400001 14786468
0.024829265 0.018445542 0.20400001 13734550
0.025662152 0.018355122 0.20300001 14261409
0.026616752 0.018355122 0.20300001 12551051
0.027571352 0.018355122 0.20300001 13011090
0.028525952 0.018355122 0.20300001 11892607
0.029480552 0.018355122 0.20300001 11695482
0.03043515 0.018355122 0.20300001 11630203
0.031389751 0.018355122 0.20300001 11827582
0.032344349 0.018355122 0.20300001 12156547
0.033298951 0.018355122 0.20300001 12156547
0.034253553 0.018355122 0.20300001 12091522
0.035208151 0.018355122 0.20300001 12157315
0.036162753 0.018355122 0.20300001 11302006
0.037300192 0.018445542 0.20400001 11499900
0.038259495 0.018445542 0.20400001 10448495
0.039411049 0.01853596 0.20500001 10055021
0.040572006 0.018626381 0.20600002 9463913
0.041742366 0.018716799 0.20700002 8082775
0.042922132 0.018807217 0.208 7951703
0.04432236 0.018988056 0.21000001 7426642
0.045309879 0.018988056 0.21000001 7427925
-0.017064681 0.020165818 0.21200001 4528657
-0.016067762 0.020165818 0.21200001 12551555
-0.01499975 0.020070696 0.21100001 14721699
-0.013941144 0.019975575 0.21000001 14587036
-0.012953627 0.019975575 0.21000001 16492977
-0.01196611 0.019975575 0.21000001 16360621
-0.010978593 0.019975575 0.21000001 15375012
-0.0099910758 0.019975575 0.21000001 15836846
-0.0090035582 0.019975575 0.21000001 15837621
-0.0079778703 0.019880453 0.20900001 16769515
-0.0069950554 0.019880453 0.20900001 16766172
-0.0060122409 0.019880453 0.20900001 15838645
-0.005005362 0.01978533 0.208 15247019
-0.0040272498 0.01978533 0.208 14590372
-0.0030491378 0.01978533 0.208 13669532
-0.0020710258 0.01978533 0.208 13734550
-0.0010929137 0.01978533 0.208 13798544
-0.00011480161 0.01978533 0.208 13535372
0.00085915992 0.01969021 0.20700002 14194072
0.0018325697 0.01969021 0.20700002 13668241
0.0028059795 0.01969021 0.20700002 13800343
0.003779389 0.01969021 0.20700002 12681862
0.0047527985 0.01969021 0.20700002 12945547
0.0056985454 0.019595088 0.20600002 12616582
0.0066672531 0.019595088 0.20600002 13274512
0.0076359599 0.019595088 0.20600002 13405839
0.0086046671 0.019595088 0.20600002 13405839
0.0095733739 0.019595088 0.20600002 13339276
0.010542081 0.019595088 0.20600002 13207688
0.011510788 0.019595088 0.20600002 13075589
0.012479495 0.019595088 0.20600002 12286073
0.013448202 0.019595088 0.20600002 12286075
0.01441691 0.019595088 0.20600002 12024186
0.015385618 0.019595088 0.20600002 12024186
0.016274935 0.019499965 0.20500001 12287617
0.017238939 0.019499965 0.20500001 12616582
0.018202944 0.019499965 0.20500001 12813961
0.019166948 0.019499965 0.20500001 13208973
0.020130955 0.019499965 0.20500001 13208973
0.021094957 0.019499965 0.20500001 12551557
0.022058962 0.019499965 0.20500001 12683143
0.023022968 0.019499965 0.20500001 11695994
0.023986973 0.019499965 0.20500001 11432822
0.024950977 0.019499965 0.20500001 11564410
0.025788568 0.019404843 0.20400001 12156547
0.026747869 0.019404843 0.20400001 11893375
0.027707173 0.019404843 0.20400001 11498103
0.028666476 0.019404843 0.20400001 11695482
0.029625777 0.019404843 0.20400001 11958654
0.030585077 0.019404843 0.20400001 11827582
0.03154438 0.019404843 0.20400001 11761789
0.032503683 0.019404843 0.20400001 11499387
0.033462986 0.019404843 0.20400001 11039865
0.03442229 0.019404843 0.20400001 11039865
0.035381589 0.019404843 0.20400001 11040119
0.036519036 0.019499965 0.20500001 11303289
0.037665881 0.019595088 0.20600002 11105912
0.038634591 0.019595088 0.20600002 10317939
0.039795548 0.01969021 0.20700002 9002594
0.040965904 0.01978533 0.208 8608606
0.042145673 0.019880453 0.20900001 7951703
0.043334845 0.019975575 0.21000001 7885908
0.04474448 0.020165818 0.21200001 8084570
0.045741402 0.020165818 0.21200001 7230035
-0.017064681 0.021162741 0.21200001 7821904
-0.016067762 0.021162741 0.21200001 9927546
-0.01499975 0.021062916 0.21100001 12027787
-0.013941144 0.020963091 0.21000001 13208719
-0.012953627 0.020963091 0.21000001 14718874
-0.01196611 0.020963091 0.21000001 15441568
-0.010978593 0.020963091 0.21000001 14915998
-0.0099910758 0.020963091 0.21000001 14915998
-0.0090035582 0.020963091 0.21000001 15179943
-0.0080160415 0.020963091 0.21000001 14785185
-0.0069950554 0.020863267 0.20900001 14719392
-0.0060122409 0.020863267 0.20900001 14719392
-0.005029426 0.020863267 0.20900001 14457503
-0.0040466115 0.020863267 0.20900001 14261407
-0.0030637973 0.020863267 0.20900001 11829633
-0.0020809826 0.020863267 0.20900001 12486282
-0.0010929137 0.020763442 0.208 12682375
-0.00011480161 0.020763442 0.208 12945547
0.00086331042 0.020763442 0.208 13406352
0.0018414226 0.020763442 0.208 13472407
0.0028195346 0.020763442 0.208 11630973
0.0037976466 0.020763442 0.208 12091524
0.0047757588 0.020763442 0.208 12551305
0.0057262084 0.020663619 0.20700002 12682891
0.0066996184 0.020663619 0.20700002 12880270
0.0076730275 0.020663619 0.20700002 13274512
0.0086464379 0.020663619 0.20700002 12945034
0.0096198469 0.020663619 0.20700002 13076620
0.010593256 0.020663619 0.20700002 13011081
0.011566667 0.020663619 0.20700002 12418944
0.012540076 0.020663619 0.20700002 12287358
0.013513485 0.020663619 0.20700002 12550530
0.014486895 0.020663619 0.20700002 12156799
0.015460305 0.020663619 0.20700002 12617350
0.016354324 0.020563796 0.20600002 12486280
0.017323032 0.020563796 0.20600002 12157315
0.01829174 0.020563796 0.20600002 12091522
0.019260446 0.020563796 0.20600002 12091522
0.020229153 0.020563796 0.20600002 12025729
0.021197861 0.020563796 0.20600002 12354696
0.022166567 0.020563796 0.20600002 12025731
0.023135275 0.020563796 0.20600002 11696766
0.024103982 0.020563796 0.20600002 11499387
0.025072688 0.020563796 0.20600002 11433594
0.025914982 0.020463971 0.20500001 11630203
0.026878987 0.020463971 0.20500001 11827582
0.027842993 0.020463971 0.20500001 11367031
0.028806997 0.020463971 0.20500001 11235445
0.029771002 0.020463971 0.20500001 11564410
0.030735005 0.020463971 0.20500001 11894145
0.031699009 0.020463971 0.20500001 11697279
0.032663014 0.020463971 0.20500001 11566463
0.033627018 0.020463971 0.20500001 10843253
0.034591027 0.020463971 0.20500001 10974839
0.035555031 0.020463971 0.20500001 10974839
0.036697175 0.020563796 0.20600002 10711667
0.037848726 0.020663619 0.20700002 9396321
0.039009679 0.020763442 0.208 8871260
0.040180042 0.020863267 0.20900001 8674397
0.041359808 0.020963091 0.21000001 8477531
0.042548981 0.021062916 0.21100001 8477531
0.0435412 0.021062916 0.21100001 8346459
0.04495554 0.021262566 0.21300001 7887193
0.045957163 0.021262566 0.21300001 7229265
-0.012891943 0.02184608 0.20900001 7094082
-0.011909128 0.02184608 0.20900001 12882321
-0.010926314 0.02184608 0.20900001 11762811
-0.0099434992 0.02184608 0.20900001 12222078
-0.0089606848 0.02184608 0.20900001 13075591
-0.0079778703 0.02184608 0.20900001 13404556
-0.0069950554 0.02184608 0.20900001 12746626
-0.0060122409 0.02184608 0.20900001 13536655
-0.005029426 0.02184608 0.20900001 13340559
-0.0040466115 0.02184608 0.20900001 13670038
-0.0030637973 0.02184608 0.20900001 11764101
-0.0020809826 0.02184608 0.20900001 11501443
-0.0010981681 0.02184608 0.20900001 12092035
-0.00011535354 0.02184608 0.20900001 12223108
0.00086746097 0.02184608 0.20900001 12552075
0.0018502757 0.02184608 0.20900001 12551821
0.0028330903 0.02184608 0.20900001 11762305
0.0038159045 0.02184608 0.20900001 11960451
0.0047987192 0.02184608 0.20900001 12552075
0.0057538706 0.021741554 0.208 13077647
0.0067319833 0.021741554 0.208 13011854
0.007710095 0.021741554 0.208 13275026
0.0086882077 0.021741554 0.208 13275028
0.009666319 0.021741554 0.208 12418951
0.010644431 0.021741554 0.208 12682891
0.011622543 0.021741554 0.208 12420489
0.012600655 0.021741554 0.208 12683659
0.013578767 0.021741554 0.208 12091522
0.014556879 0.021741554 0.208 11959936
0.015534991 0.021741554 0.208 12025729
0.016433716 0.021637028 0.20700002 12552073
0.017407123 0.021637028 0.20700002 12157830
0.018380534 0.021637028 0.20700002 12289416
0.019353945 0.021637028 0.20700002 12092037
0.020327354 0.021637028 0.20700002 11499900
0.021300763 0.021637028 0.20700002 11434107
0.022274172 0.021637028 0.20700002 11697279
0.023247583 0.021637028 0.20700002 12092037
0.024220992 0.021637028 0.20700002 11499900
0.025194401 0.021637028 0.20700002 11762559
0.026167812 0.021637028 0.20700002 11894145
0.027010104 0.021532502 0.20600002 11894658
0.027978811 0.021532502 0.20600002 11434107
0.028947519 0.021532502 0.20600002 11170935
0.029916227 0.021532502 0.20600002 10907763
0.030884931 0.021532502 0.20600002 11039349
0.031853639 0.021532502 0.20600002 11434877
0.032822348 0.021532502 0.20600002 11435390
0.033791054 0.021532502 0.20600002 11172732
0.034928501 0.021637028 0.20700002 11041146
0.035901908 0.021637028 0.20700002 10449009
0.037053458 0.021741554 0.208 9988458
0.038214412 0.02184608 0.20900001 9527907
0.039384775 0.021950608 0.21000001 9331298
0.040372293 0.021950608 0.21000001 9068639
0.041556761 0.022055134 0.21100001 8477272
0.042750634 0.022159662 0.21200001 8345945
0.043747559 0.022159662 0.21200001 8346713
0.04495554 0.022264188 0.21300001 7952473
0.045957163 0.022264188 0.21300001 6637128
-0.010926314 0.022828896 0.20900001 7228750
-0.0099434992 0.022828896 0.20900001 11634051
-0.0089606848 0.022828896 0.20900001 12289668
-0.0079778703 0.022828896 0.20900001 12880520
-0.0069950554 0.022828896 0.20900001 12814727
-0.0060410076 0.022938125 0.21000001 12683141
-0.0050534904 0.022938125 0.21000001 12945799
-0.0040659732 0.022938125 0.21000001 13143692
-0.0030637973 0.022828896 0.20900001 12685457
-0.0020809826 0.022828896 0.20900001 11304066
-0.0010981681 0.022828896 0.20900001 12488078
-0.00011535354 0.022828896 0.20900001 11961734
0.00086746097 0.022828896 0.20900001 12290699
0.0018502757 0.022828896 0.20900001 11828611
0.0028330903 0.022828896 0.20900001 11696512
0.0038159045 0.022828896 0.20900001 12552075
0.0047987192 0.022828896 0.20900001 13012624
0.0057815337 0.022828896 0.20900001 12683659
0.0067643486 0.022828896 0.20900001 12946831
0.0077471626 0.022828896 0.20900001 13012624
0.0087299775 0.022828896 0.20900001 12814477
0.009712792 0.022828896 0.20900001 11893891
0.010695606 0.022828896 0.20900001 11103859
0.011678421 0.022828896 0.20900001 11827582
0.012661235 0.022828896 0.20900001 12552075
0.013644049 0.022828896 0.20900001 12617868
0.014626864 0.022828896 0.20900001 11368060
0.01560968 0.022828896 0.20900001 11039095
0.016513104 0.022719666 0.208 11368060
0.017491216 0.022719666 0.208 11828611
0.018469328 0.022719666 0.208 10775923
0.01944744 0.022719666 0.208 11039095
0.020425553 0.022719666 0.208 11303037
0.021403663 0.022719666 0.208 11105658
0.022381775 0.022719666 0.208 11368830
0.023359889 0.022719666 0.208 11369084
0.024338001 0.022719666 0.208 11697279
0.025316112 0.022719666 0.208 11961221
0.026294224 0.022719666 0.208 11895428
0.027272336 0.022719666 0.208 11895428
0.028250448 0.022719666 0.208 11303291
0.029228562 0.022719666 0.208 10776693
0.030206675 0.022719666 0.208 10974326
0.031184783 0.022719666 0.208 11172218
0.032162897 0.022719666 0.208 11040632
0.03314101 0.022719666 0.208 10843253
0.034119122 0.022719666 0.208 10909560
0.035097234 0.022719666 0.208 10778744
0.036248785 0.022828896 0.20900001 10186353
0.037409741 0.022938125 0.21000001 9396839
0.038580101 0.023047354 0.21100001 9067102
0.039759867 0.023156583 0.21200001 8869977
0.040756792 0.023156583 0.21200001 8608088
0.041753713 0.023156583 0.21200001 8543578
0.042952288 0.023265813 0.21300001 8280920
0.043953914 0.023265813 0.21300001 7952475
0.04495554 0.023265813 0.21300001 6768201
-0.0089606848 0.023811711 0.20900001 9267563
-0.0079778703 0.023811711 0.20900001 12357004
-0.0069950554 0.023811711 0.20900001 12619662
-0.0060410076 0.023925642 0.21000001 12948114
-0.0050534904 0.023925642 0.21000001 13144977
-0.0040659732 0.023925642 0.21000001 13144977
-0.0030784565 0.023925642 0.21000001 12487565
-0.0020909396 0.023925642 0.21000001 11566463
-0.0010981681 0.023811711 0.20900001 11368830
-0.00011535354 0.023811711 0.20900001 11040892
0.00086746097 0.023811711 0.20900001 12093580
0.0018502757 0.023811711 0.20900001 11303804
0.0028330903 0.023811711 0.20900001 11762559
0.0038159045 0.023811711 0.20900001 11959938
0.0048216796 0.023925642 0.21000001 12881038
0.0058091967 0.023925642 0.21000001 12814475
0.0067967139 0.023925642 0.21000001 12814475
0.0077842306 0.023925642 0.21000001 12682375
0.0087717483 0.023925642 0.21000001 12025729
0.009759265 0.023925642 0.21000001 11762559
0.010746782 0.023925642 0.21000001 11170422
0.011734298 0.023925642 0.21000001 11499387
0.012721815 0.023925642 0.21000001 11564410
0.013709332 0.023925642 0.21000001 12486282
0.01469685 0.023925642 0.21000001 12222856
0.015684366 0.023925642 0.21000001 11697027
0.016592495 0.023811711 0.20900001 10973304
0.017575307 0.023811711 0.20900001 10775925
0.018558122 0.023811711 0.20900001 10907509
0.019540938 0.023811711 0.20900001 10710130
0.020523753 0.023811711 0.20900001 10776693
0.021506567 0.023811711 0.20900001 10842486
0.02248938 0.023811711 0.20900001 11172478
0.023472195 0.023811711 0.20900001 11172478
0.024455011 0.023811711 0.20900001 10712181
0.025437824 0.023811711 0.20900001 11435390
0.02642064 0.023811711 0.20900001 11764355
0.027403453 0.023811711 0.20900001 11764355
0.028386269 0.023811711 0.20900001 11764101
0.029369084 0.023811711 0.20900001 11369857
0.0303519 0.023811711 0.20900001 11238525
0.031334709 0.023811711 0.20900001 11501697
0.032472156 0.023925642 0.21000001 11106939
0.033459675 0.023925642 0.21000001 11172732
0.034447189 0.023925642 0.21000001 10778744
0.035434708 0.023925642 0.21000001 10252913
0.036595665 0.024039574 0.21100001 9594729
0.037766028 0.024153506 0.21200001 9068387
0.03894579 0.024267439 0.21300001 8805215
0.039947417 0.024267439 0.21300001 9002592
0.040949039 0.024267439 0.21300001 8871776
0.041950665 0.024267439 0.21300001 8412252
0.042952288 0.024267439 0.21300001 7755609
0.043953914 0.024267439 0.21300001 6702667
-0.0080160415 0.02491316 0.21000001 6046022
-0.0069950554 0.024794526 0.20900001 9859698
-0.0060410076 0.02491316 0.21000001 11634051
-0.0050534904 0.02491316 0.21000001 12094086
-0.0040659732 0.02491316 0.21000001 12356490
-0.0030784565 0.02491316 0.21000001 12158598
-0.0020909396 0.02491316 0.21000001 12158598
-0.0011034225 0.02491316 0.21000001 11698562
-0.00011590547 0.02491316 0.21000001 11173250
0.00087161153 0.02491316 0.21000001 11107455
0.0018591286 0.02491316 0.21000001 12224391
0.0028466457 0.02491316 0.21000001 12618379
0.0038341626 0.02491316 0.21000001 12486793
0.0048446399 0.025031794 0.21100001 12749452
0.0058368593 0.025031794 0.21100001 12683913
0.0068290792 0.025031794 0.21100001 12552327
0.0078212982 0.025031794 0.21100001 12157315
0.0088135181 0.025031794 0.21100001 12026242
0.0098057371 0.025031794 0.21100001 11894656
0.010797957 0.025031794 0.21100001 11696764
0.011790177 0.025031794 0.21100001 11762557
0.012782396 0.025031794 0.21100001 11433592
0.013774615 0.025031794 0.21100001 11236213
0.014766835 0.025031794 0.21100001 10973041
0.015759055 0.025031794 0.21100001 11236726
0.016751274 0.025031794 0.21100001 11236728
0.017743492 0.025031794 0.21100001 11368314
0.018735712 0.025031794 0.21100001 10974326
0.019727932 0.025031794 0.21100001 10974326
0.020720152 0.025031794 0.21100001 11961480
0.02171237 0.025031794 0.21100001 11698822
0.02270459 0.025031794 0.21100001 11238271
0.02369681 0.025031794 0.21100001 11106939
0.02468903 0.025031794 0.21100001 11041146
0.025681248 0.025031794 0.21100001 10909560
0.026673468 0.025031794 0.21100001 11238525
0.027665688 0.025031794 0.21100001 11106939
0.028657908 0.025031794 0.21100001 11172732
0.029650128 0.025031794 0.21100001 11436674
0.030642347 0.025031794 0.21100001 11107455
0.031634565 0.025031794 0.21100001 11107968
0.032626785 0.025031794 0.21100001 10713210
0.033778336 0.025150428 0.21200001 10516085
0.034775261 0.025150428 0.21200001 10187120
0.035772182 0.025150428 0.21200001 9792362
0.036942545 0.025269063 0.21300001 9528936
0.038122311 0.025387697 0.21400002 9134948
0.039128635 0.025387697 0.21400002 8938082
0.040322505 0.025506331 0.215 8543326
0.04114129 0.025387697 0.21400002 8214361
0.042147618 0.025387697 0.21400002 7689301
0.042952288 0.025269063 0.21300001 7032656
-0.0060410076 0.025900675 0.21000001 5782850
-0.0050534904 0.025900675 0.21000001 10715009
-0.0040659732 0.025900675 0.21000001 11766668
-0.0030784565 0.025900675 0.21000001 11436672
-0.0020909396 0.025900675 0.21000001 11370879
-0.0011034225 0.025900675 0.21000001 11897225
-0.00011645741 0.026024012 0.21100001 11635082
0.00087576202 0.026024012 0.21100001 10975869
0.0018679816 0.026024012 0.21100001 11566461
0.0028602011 0.026024012 0.21100001 11895426
0.0038524205 0.026024012 0.21100001 12158598
0.0048676003 0.026147349 0.21200001 12027012
0.0058645224 0.026147349 0.21200001 12158852
0.0068614446 0.026147349 0.21200001 11960703
0.0078583667 0.026147349 0.21200001 11500668
0.0088552888 0.026147349 0.21200001 10909044
0.0098522101 0.026147349 0.21200001 10776945
0.010849132 0.026147349 0.21200001 10841455
0.011846054 0.026147349 0.21200001 12025729
0.012842976 0.026147349 0.21200001 12025729
0.013839898 0.026147349 0.21200001 11631484
0.01483682 0.026147349 0.21200001 11368312
0.015833743 0.026147349 0.21200001 11039349
0.016830664 0.026147349 0.21200001 11105912
0.017827585 0.026147349 0.21200001 11566463
0.018824508 0.026147349 0.21200001 11368830
0.01982143 0.026147349 0.21200001 11763588
0.020818353 0.026147349 0.21200001 11698308
0.021815274 0.026147349 0.21200001 11500929
0.022812195 0.026147349 0.21200001 11304064
0.023809118 0.026147349 0.21200001 11370111
0.024806039 0.026147349 0.21200001 11238525
0.025802961 0.026147349 0.21200001 10909560
0.026799884 0.026147349 0.21200001 10843767
0.027796807 0.026147349 0.21200001 10580595
0.028793728 0.026147349 0.21200001 10186353
0.029790651 0.026147349 0.21200001 10844796
0.030932797 0.026270686 0.21300001 10844796
0.031934418 0.026270686 0.21300001 10976382
0.032936044 0.026270686 0.21300001 10582394
0.034097001 0.026394023 0.21400002 10450808
0.035103329 0.026394023 0.21400002 10121843
0.036109656 0.026394023 0.21400002 9529708
0.037289418 0.026517358 0.215 9003877
0.038478591 0.026640695 0.21600001 8675426
0.039311476 0.026517358 0.215 8346461
0.040322505 0.026517358 0.215 7556945
0.041333538 0.026517358 0.215 6965578
0.042147618 0.026394023 0.21400002 7164240
-0.0040659732 0.026888192 0.21000001 6572366
-0.0030784565 0.026888192 0.21000001 8741989
-0.0020909396 0.026888192 0.21000001 11175044
-0.0011034225 0.026888192 0.21000001 11307148
-0.00011645741 0.02701623 0.21100001 11636113
0.00087991258 0.02714427 0.21200001 11306119
0.0018768347 0.02714427 0.21200001 12159625
0.0028737567 0.02714427 0.21200001 11830914
0.0038706784 0.02714427 0.21200001 11501435
0.0048905606 0.02727231 0.21300001 11238009
0.0058921855 0.02727231 0.21300001 11172216
0.0068938099 0.02727231 0.21300001 11040632
0.0078954343 0.02727231 0.21300001 10514288
0.0088970587 0.02727231 0.21300001 10514288
0.0098986831 0.02727231 0.21300001 11499900
0.010900307 0.02727231 0.21300001 11565691
0.011901932 0.02727231 0.21300001 11631484
0.012903556 0.02727231 0.21300001 11040117
0.01390518 0.02727231 0.21300001 11105912
0.014906805 0.02727231 0.21300001 11105912
0.015908429 0.02727231 0.21300001 10974326
0.016910054 0.02727231 0.21300001 11500670
0.017911678 0.02727231 0.21300001 11500670
0.018913303 0.02727231 0.21300001 10908792
0.019914927 0.02727231 0.21300001 11764101
0.020916553 0.02727231 0.21300001 11567236
0.021918176 0.02727231 0.21300001 11369857
0.0229198 0.02727231 0.21300001 11304064
0.023921425 0.02727231 0.21300001 11107709
0.024923051 0.02727231 0.21300001 10910330
0.026046386 0.027400348 0.21400002 10910330
0.027052714 0.027400348 0.21400002 10778744
0.028059041 0.027400348 0.21400002 10910843
0.029065367 0.027400348 0.21400002 10516855
0.030071694 0.027400348 0.21400002 10451062
0.031223245 0.027528387 0.215 10582648
0.03223427 0.027528387 0.215 10714493
0.033245303 0.027528387 0.215 10648700
0.034415662 0.027656425 0.21600001 10188663
0.035431396 0.027656425 0.21600001 10320251
0.036447126 0.027656425 0.21600001 9663093
0.037636299 0.027784465 0.21700001 8084061
0.038656734 0.027784465 0.21700001 7426644
0.039677165 0.027784465 0.21700001 7229265
-0.0020909396 0.027875708 0.21000001 5455429
-0.0011034225 0.027875708 0.21000001 8480630
-0.00011645741 0.02800845 0.21100001 11638178
0.00087991258 0.028141193 0.21200001 11045259
0.0018856877 0.028273934 0.21300001 10714745
0.0028873121 0.028273934 0.21300001 11305599
0.0038889365 0.028273934 0.21300001 11042427
0.0049135215 0.028406676 0.21400002 10712949
0.0059198481 0.028406676 0.21400002 10581365
0.0069261757 0.028406676 0.21400002 10581365
0.0079325018 0.028406676 0.21400002 10186607
0.0089388294 0.028406676 0.21400002 10711927
0.0099451561 0.028406676 0.21400002 11369857
0.010951483 0.028406676 0.21400002 11567490
0.011957809 0.028406676 0.21400002 11435390
0.012964136 0.028406676 0.21400002 11172732
0.013970463 0.028406676 0.21400002 11238525
0.01497679 0.028406676 0.21400002 11106937
0.015983118 0.028406676 0.21400002 11106939
0.016989445 0.028406676 0.21400002 11106939
0.017995771 0.028406676 0.21400002 10909560
0.019002099 0.028406676 0.21400002 11501697
0.020008424 0.028406676 0.21400002 11172732
0.021014752 0.028406676 0.21400002 11304318
0.022021078 0.028406676 0.21400002 11173502
0.023027405 0.028406676 0.21400002 10910589
0.024033733 0.028406676 0.21400002 10253429
0.02504006 0.028406676 0.21400002 10450808
0.026168097 0.028539415 0.215 10516601
0.027179126 0.028539415 0.215 10450808
0.028190156 0.028539415 0.215 10319735
0.029337006 0.028672157 0.21600001 10319735
0.030352738 0.028672157 0.21600001 10320249
0.031513695 0.028804898 0.21700001 10583423
0.032534126 0.028804898 0.21700001 10255228
0.033554561 0.028804898 0.21700001 10649986
0.034734327 0.028937642 0.21800001 10584706
0.035759464 0.028937642 0.21800001 10584708
0.0367846 0.028937642 0.21800001 8545641
0.037809737 0.028937642 0.21800001 7559000
0.039013017 0.029070383 0.21900001 6046274
0.0402257 0.029203124 0.22000001 5586493
0.041447788 0.029335866 0.22100002 4535348
-0.0011034225 0.028863227 0.21000001 5129298
-0.00011645741 0.02900067 0.21100001 6048086
0.00087991258 0.029138114 0.21200001 7164250
0.0018856877 0.029275559 0.21300001 9071467
0.0029008675 0.029413003 0.21400002 10583673
0.0039071944 0.029413003 0.21400002 10188401
0.0049364814 0.029550446 0.215 10451573
0.0059475107 0.029550446 0.215 10780027
0.0069585405 0.029550446 0.215 10845820
0.0079695694 0.029550446 0.215 10780027
0.0089805992 0.029550446 0.215 10582648
0.0099916281 0.029550446 0.215 10780027
