# .PCD v0.7 - Point Cloud Data file format
VERSION 0.7
FIELDS x y z rgb
SIZE 4 4 4 4
TYPE F F F U
COUNT 1 1 1 1
WIDTH 1096
HEIGHT 1
VIEWPOINT 0 0 0 1 0 0 0
POINTS 1096
DATA ascii
-0.0070999227 -0.00067516527 0.186 11496568
-0.0062252646 -0.00067516527 0.186 11428972
-0.0053506065 -0.00067516527 0.186 10573915
-0.0044759484 -0.00067516527 0.186 10375507
-0.0036012908 -0.00067516527 0.186 10441554
-0.0027266329 -0.00067516527 0.186 11101799
-0.001851975 -0.00067516527 0.186 10510693
-0.00097731699 -0.00067516527 0.186 10511468
-0.00010265913 -0.00067516527 0.186 14854576
0.00077199872 -0.00067516527 0.186 11235183
0.0016466568 -0.00067516527 0.186 12746624
0.0025213147 -0.00067516527 0.186 12218738
0.0033959725 -0.00067516527 0.186 11758187
0.0042706304 -0.00067516527 0.186 11496557
0.0051452885 -0.00067516527 0.186 10905964
0.0060199467 -0.00067516527 0.186 9459032
0.0068946043 -0.00067516527 0.186 7023146
0.0077692624 -0.00067516527 0.186 5576470
0.0086439196 -0.00067516527 0.186 5052438
0.0095185777 -0.00067516527 0.186 4330260
0.010393236 -0.00067516527 0.186 4724764
0.011267894 -0.00067516527 0.186 5119522
0.012142551 -0.00067516527 0.186 4922913
0.013017209 -0.00067516527 0.186 4923165
0.037026878 -0.00068242516 0.18800001 5708308
0.037709285 -0.00067879522 0.18700001 6231572
0.038588647 -0.00067879522 0.18700001 6426896
0.039468009 -0.00067879522 0.18700001 7084828
0.040347368 -0.00067879522 0.18700001 8794674
0.041226726 -0.00067879522 0.18700001 10637650
0.042106088 -0.00067879522 0.18700001 10835545
0.042985447 -0.00067879522 0.18700001 11296350
0.043864809 -0.00067879522 0.18700001 14651539
0.044983443 -0.00068242516 0.18800001 13667726
0.045867506 -0.00068242516 0.18800001 6505025
0.04675157 -0.00068242516 0.18800001 4539713
-0.017595818 0.00019949263 0.186 8347746
-0.016721159 0.00019949263 0.186 11630201
-0.015761305 0.00019842009 0.185 12811649
-0.014971843 0.00019949263 0.186 12481912
-0.014097186 0.00019949263 0.186 13928583
-0.013222528 0.00019949263 0.186 11491930
-0.01234787 0.00019949263 0.186 13794685
-0.011473212 0.00019949263 0.186 12742254
-0.010598554 0.00019949263 0.186 13137784
-0.0097238962 0.00019949263 0.186 12413807
-0.008849239 0.00019949263 0.186 12611186
-0.0079745799 0.00019949263 0.186 11560553
-0.0070999227 0.00019949263 0.186 13336966
-0.0062252646 0.00019949263 0.186 10376286
-0.0053506065 0.00019949263 0.186 9389132
-0.0044759484 0.00019949263 0.186 9652558
-0.0036012908 0.00019949263 0.186 9193032
-0.0027266329 0.00019949263 0.186 11563129
-0.001851975 0.00019949263 0.186 10643054
-0.00097731699 0.00019949263 0.186 9260376
-0.00010265913 0.00019949263 0.186 8076102
0.00077199872 0.00019949263 0.186 9325651
0.0016466568 0.00019949263 0.186 10245720
0.0025213147 0.00019949263 0.186 5245450
0.0033959725 0.00019949263 0.186 5575185
0.0042706304 0.00019949263 0.186 5773847
0.0051452885 0.00019949263 0.186 5643290
0.0060199467 0.00019949263 0.186 5578269
0.0068946043 0.00019949263 0.186 5512476
0.0077692624 0.00019949263 0.186 5512989
0.0086439196 0.00019949263 0.186 5447966
0.0095185777 0.00019949263 0.186 5447966
0.010393236 0.00019949263 0.186 5382686
0.011267894 0.00019949263 0.186 4856342
0.012142551 0.00019949263 0.186 5119514
0.012947224 0.00019842009 0.185 5251100
0.01381718 0.00019842009 0.185 5382173
0.014687136 0.00019842009 0.185 5776931
0.01555709 0.00019842009 0.185 5251100
0.016427046 0.00019842009 0.185 5119514
0.035071205 0.00020056518 0.18700001 5050637
0.036142815 0.00020163771 0.18800001 4786952
0.037026878 0.00020163771 0.18800001 5509392
0.037709285 0.00020056518 0.18700001 8139826
0.038588647 0.00020056518 0.18700001 10901853
0.039468009 0.00020056518 0.18700001 12019821
0.040347368 0.00020056518 0.18700001 11559268
0.041226726 0.00020056518 0.18700001 10770265
0.042106088 0.00020056518 0.18700001 11231588
0.042985447 0.00020056518 0.18700001 11691367
0.043864809 0.00020056518 0.18700001 14520466
0.044983443 0.00020163771 0.18800001 14062486
0.045867506 0.00020163771 0.18800001 6701634
0.04675157 0.00020163771 0.18800001 4867906
-0.017595818 0.0010741506 0.186 8083289
-0.016721159 0.0010741506 0.186 12288131
-0.015761305 0.0010683755 0.185 13141897
-0.014971843 0.0010741506 0.186 12547453
-0.014097186 0.0010741506 0.186 13336966
-0.013222528 0.0010741506 0.186 13071221
-0.01234787 0.0010741506 0.186 13399927
-0.011473212 0.0010741506 0.186 12413032
-0.010598554 0.0010741506 0.186 12413291
-0.0097238962 0.0010741506 0.186 11559272
-0.008849239 0.0010741506 0.186 11296613
-0.0079745799 0.0010741506 0.186 10639199
-0.0070999227 0.0010741506 0.186 10573411
-0.0062252646 0.0010741506 0.186 10706021
-0.0053506065 0.0010741506 0.186 11035238
-0.0044759484 0.0010741506 0.186 10378076
-0.0036012908 0.0010741506 0.186 10312798
-0.0027266329 0.0010741506 0.186 10511470
-0.001851975 0.0010741506 0.186 10446962
-0.00097731699 0.0010741506 0.186 8866393
-0.00010265913 0.0010741506 0.186 12747666
0.00077199872 0.0010741506 0.186 9853540
0.0016466568 0.0010741506 0.186 8864846
0.0025213147 0.0010741506 0.186 10839142
0.0033959725 0.0010741506 0.186 9129294
0.0042706304 0.0010741506 0.186 8801356
0.0051452885 0.0010741506 0.186 6960181
0.0060199467 0.0010741506 0.186 5250335
0.0068946043 0.0010741506 0.186 5250335
0.0077692624 0.0010741506 0.186 5446690
0.0086439196 0.0010741506 0.186 5446944
0.0095185777 0.0010741506 0.186 5841702
0.010393236 0.0010741506 0.186 9526108
0.011267894 0.0010741506 0.186 10973808
0.012142551 0.0010741506 0.186 10973808
0.012947224 0.0010683755 0.185 10907761
0.01381718 0.0010683755 0.185 10709869
0.014687136 0.0010683755 0.185 10840939
0.01555709 0.0010683755 0.185 9129815
0.016427046 0.0010683755 0.185 11959686
0.017297002 0.0010683755 0.185 7420480
0.018166957 0.0010683755 0.185 5512735
0.019036911 0.0010683755 0.185 5972255
0.019906867 0.0010683755 0.185 5382169
0.020776823 0.0010683755 0.185 6828334
0.021646779 0.0010683755 0.185 7091254
0.022516733 0.0010683755 0.185 9524825
0.032433122 0.0010799256 0.18700001 4986643
0.033312485 0.0010799256 0.18700001 4656143
0.034374688 0.0010857006 0.18800001 7746871
0.035258751 0.0010857006 0.18800001 12877440
0.036142815 0.0010857006 0.18800001 12219510
0.037026878 0.0010857006 0.18800001 14258321
0.037709285 0.0010799256 0.18700001 13468550
0.038588647 0.0010799256 0.18700001 12284276
0.039468009 0.0010799256 0.18700001 11559783
0.040347368 0.0010799256 0.18700001 12152690
0.041226726 0.0010799256 0.18700001 13402757
0.042106088 0.0010799256 0.18700001 14258066
0.042985447 0.0010799256 0.18700001 16033705
0.043864809 0.0010799256 0.18700001 15902891
0.044983443 0.0010857006 0.18800001 14064542
0.045867506 0.0010857006 0.18800001 5192249
0.04675157 0.0010857006 0.18800001 4538943
-0.017595818 0.0019488084 0.186 4401195
-0.016721159 0.0019488084 0.186 13736860
-0.015761305 0.0019383309 0.185 13799827
-0.014971843 0.0019488084 0.186 12943753
-0.014097186 0.0019488084 0.186 13008006
-0.013222528 0.0019488084 0.186 13729667
-0.01234787 0.0019488084 0.186 13400184
-0.011473212 0.0019488084 0.186 13664128
-0.010598554 0.0019488084 0.186 14585746
-0.0097238962 0.0019488084 0.186 12217461
-0.008849239 0.0019488084 0.186 11362927
-0.0079745799 0.0019488084 0.186 16497606
-0.0070999227 0.0019488084 0.186 16764377
-0.0062252646 0.0019488084 0.186 15773113
-0.0053506065 0.0019488084 0.186 12549506
-0.0044759484 0.0019488084 0.186 12615040
-0.0036012908 0.0019488084 0.186 11760244
-0.0027266329 0.0019488084 0.186 11103607
-0.001851975 0.0019488084 0.186 11170685
-0.00097731699 0.0019488084 0.186 11499135
-0.00010265913 0.0019488084 0.186 16764889
0.00077199872 0.0019488084 0.186 16500686
0.0016466568 0.0019488084 0.186 16764116
0.0025213147 0.0019488084 0.186 12089725
0.0033959725 0.0019488084 0.186 13405839
0.0042706304 0.0019488084 0.186 14129562
0.0051452885 0.0019488084 0.186 13209487
0.0060199467 0.0019488084 0.186 13012878
0.0068946043 0.0019488084 0.186 12553610
0.0077692624 0.0019488084 0.186 13408665
0.0086439196 0.0019488084 0.186 15710650
0.0095185777 0.0019488084 0.186 14459300
0.010393236 0.0019488084 0.186 11761787
0.011267894 0.0019488084 0.186 11762557
0.012142551 0.0019488084 0.186 12486280
0.013017209 0.0019488084 0.186 13012624
0.013891867 0.0019488084 0.186 12682375
0.014766525 0.0019488084 0.186 11235443
0.015641183 0.0019488084 0.186 15380920
0.016515842 0.0019488084 0.186 16765398
0.017390499 0.0019488084 0.186 16105156
0.018265158 0.0019488084 0.186 9787997
0.019139815 0.0019488084 0.186 10181728
0.020014472 0.0019488084 0.186 10182493
0.020889131 0.0019488084 0.186 11102830
0.021763789 0.0019488084 0.186 11498101
0.022638446 0.0019488084 0.186 11498101
0.023513105 0.0019488084 0.186 16632270
0.024518881 0.0019592859 0.18700001 16765405
0.025398241 0.0019592859 0.18700001 11040642
0.026277602 0.0019592859 0.18700001 8013641
0.027156962 0.0019592859 0.18700001 6828082
0.028036321 0.0019592859 0.18700001 5316126
0.028915681 0.0019592859 0.18700001 5841187
0.029795041 0.0019592859 0.18700001 6432808
0.030674402 0.0019592859 0.18700001 8537668
0.031553764 0.0019592859 0.18700001 9064526
0.032606564 0.0019697635 0.18800001 9196632
0.033490628 0.0019697635 0.18800001 9458780
0.034374688 0.0019697635 0.18800001 9654616
0.035258751 0.0019697635 0.18800001 14126739
0.036142815 0.0019697635 0.18800001 11823725
0.036829926 0.0019592859 0.18700001 12152690
0.037709285 0.0019592859 0.18700001 12547450
0.038588647 0.0019592859 0.18700001 12942208
0.039468009 0.0019592859 0.18700001 13336966
0.040347368 0.0019592859 0.18700001 13402759
0.041226726 0.0019592859 0.18700001 14915226
0.042106088 0.0019592859 0.18700001 16033707
0.042985447 0.0019592859 0.18700001 16033707
0.043864809 0.0019592859 0.18700001 14325658
0.044983443 0.0019697635 0.18800001 12160658
0.045867506 0.0019697635 0.18800001 4732989
0.04675157 0.0019697635 0.18800001 4408131
-0.017595818 0.0028234664 0.186 3282203
-0.016721159 0.0028234664 0.186 11436424
-0.015761305 0.0028082863 0.185 13603731
-0.014971843 0.0028234664 0.186 13602194
-0.014097186 0.0028234664 0.186 13731727
-0.013222528 0.0028234664 0.186 14848920
-0.01234787 0.0028234664 0.186 16493227
-0.011473212 0.0028234664 0.186 16757427
-0.010598554 0.0028234664 0.186 15574178
-0.0097238962 0.0028234664 0.186 14850460
-0.008849239 0.0028234664 0.186 13140362
-0.0079745799 0.0028234664 0.186 16765917
-0.0070999227 0.0028234664 0.186 16764886
-0.0062252646 0.0028234664 0.186 16765145
-0.0053506065 0.0028234664 0.186 13207438
-0.0044759484 0.0028234664 0.186 12944264
-0.0036012908 0.0028234664 0.186 13471378
-0.0027266329 0.0028234664 0.186 12092037
-0.001851975 0.0028234664 0.186 12553104
-0.00097731699 0.0028234664 0.186 16763858
-0.00010265913 0.0028234664 0.186 16631500
0.00077199872 0.0028234664 0.186 16763857
0.0016466568 0.0028234664 0.186 16234945
0.0025213147 0.0028234664 0.186 14324634
0.0033959725 0.0028234664 0.186 14456472
0.0042706304 0.0028234664 0.186 14455700
0.0051452885 0.0028234664 0.186 14718872
0.0060199467 0.0028234664 0.186 13207175
0.0068946043 0.0028234664 0.186 12681346
0.0077692624 0.0028234664 0.186 16762826
0.0086439196 0.0028234664 0.186 15973309
0.0095185777 0.0028234664 0.186 16038080
0.010393236 0.0028234664 0.186 12945036
0.011267894 0.0028234664 0.186 13734552
0.012142551 0.0028234664 0.186 13865366
0.013017209 0.0028234664 0.186 13668241
0.013891867 0.0028234664 0.186 13800597
0.014766525 0.0028234664 0.186 12616836
0.015641183 0.0028234664 0.186 16764111
0.016515842 0.0028234664 0.186 16763855
0.017390499 0.0028234664 0.186 15050925
0.018265158 0.0028234664 0.186 13733269
0.019139815 0.0028234664 0.186 13470608
0.020014472 0.0028234664 0.186 12024445
0.020889131 0.0028234664 0.186 13339792
0.021763789 0.0028234664 0.186 13537171
0.022638446 0.0028234664 0.186 14987699
0.023513105 0.0028234664 0.186 16773878
0.024518881 0.0028386463 0.18700001 16773876
0.025398241 0.0028386463 0.18700001 16773112
0.026277602 0.0028386463 0.18700001 11629949
0.027156962 0.0028386463 0.18700001 10969445
0.028036321 0.0028386463 0.18700001 11166822
0.028915681 0.0028386463 0.18700001 11101799
0.029795041 0.0028386463 0.18700001 11299691
0.030674402 0.0028386463 0.18700001 10905703
0.031553764 0.0028386463 0.18700001 9787224
0.032433122 0.0028386463 0.18700001 13735831
0.033490628 0.0028538264 0.18800001 15973309
0.034374688 0.0028538264 0.18800001 16433092
0.035258751 0.0028538264 0.18800001 16762573
0.036142815 0.0028538264 0.18800001 14060435
0.036829926 0.0028386463 0.18700001 14652056
0.037709285 0.0028386463 0.18700001 14783642
0.038588647 0.0028386463 0.18700001 14258068
0.039468009 0.0028386463 0.18700001 15310756
0.040347368 0.0028386463 0.18700001 14389652
0.041226726 0.0028386463 0.18700001 15112092
0.042106088 0.0028386463 0.18700001 15375777
0.042985447 0.0028386463 0.18700001 15443367
0.043864809 0.0028386463 0.18700001 14065312
0.044983443 0.0028538264 0.18800001 5716796
0.045867506 0.0028538264 0.18800001 4866623
0.04675157 0.0028538264 0.18800001 5195842
-0.017595818 0.0036981243 0.186 8943481
-0.016721159 0.0036981243 0.186 6108983
-0.015846502 0.0036981243 0.186 11894656
-0.014971843 0.0036981243 0.186 13800856
-0.014097186 0.0036981243 0.186 13798544
-0.013222528 0.0036981243 0.186 14454675
-0.01234787 0.0036981243 0.186 15901606
-0.011473212 0.0036981243 0.186 15441055
-0.010598554 0.0036981243 0.186 15177883
-0.0097238962 0.0036981243 0.186 15245216
-0.008849239 0.0036981243 0.186 15179425
-0.0079745799 0.0036981243 0.186 14655400
-0.0070999227 0.0036981243 0.186 16766939
-0.0062252646 0.0036981243 0.186 16765654
-0.0053506065 0.0036981243 0.186 16762314
-0.0044759484 0.0036981243 0.186 13931929
-0.0036012908 0.0036981243 0.186 14326687
-0.0027266329 0.0036981243 0.186 12881553
-0.001851975 0.0036981243 0.186 12948375
-0.00097731699 0.0036981243 0.186 14854060
-0.00010265913 0.0036981243 0.186 16764116
0.00077199872 0.0036981243 0.186 16765401
0.0016466568 0.0036981243 0.186 13865368
0.0025213147 0.0036981243 0.186 14193302
0.0033959725 0.0036981243 0.186 14719646
0.0042706304 0.0036981243 0.186 15048609
0.0051452885 0.0036981243 0.186 15180195
0.0060199467 0.0036981243 0.186 14588828
0.0068946043 0.0036981243 0.186 14325656
0.0077692624 0.0036981243 0.186 14722212
0.0086439196 0.0036981243 0.186 16764110
0.0095185777 0.0036981243 0.186 16768736
0.010393236 0.0036981243 0.186 13997722
0.011267894 0.0036981243 0.186 14129308
0.012142551 0.0036981243 0.186 13667987
0.013017209 0.0036981243 0.186 13470608
0.013891867 0.0036981243 0.186 14260378
0.014766525 0.0036981243 0.186 14392734
0.015641183 0.0036981243 0.186 16762567
0.016515842 0.0036981243 0.186 15970996
0.017390499 0.0036981243 0.186 14061462
0.018265158 0.0036981243 0.186 13337741
0.019139815 0.0036981243 0.186 12679809
0.020014472 0.0036981243 0.186 12286075
0.020889131 0.0036981243 0.186 11891830
0.021763789 0.0036981243 0.186 13471891
0.022638446 0.0036981243 0.186 16702172
0.023513105 0.0036981243 0.186 16775160
0.024518881 0.0037180067 0.18700001 16773879
0.025398241 0.0037180067 0.18700001 16773626
0.026277602 0.0037180067 0.18700001 13930396
0.027156962 0.0037180067 0.18700001 15376806
0.028036321 0.0037180067 0.18700001 15574953
0.028915681 0.0037180067 0.18700001 14523035
0.029795041 0.0037180067 0.18700001 13668239
0.030674402 0.0037180067 0.18700001 13734804
0.031553764 0.0037180067 0.18700001 13471632
0.032606564 0.0037378892 0.18800001 16696002
0.033490628 0.0037378892 0.18800001 16433344
0.034374688 0.0037378892 0.18800001 16433608
0.035258751 0.0037378892 0.18800001 16764118
0.036142815 0.0037378892 0.18800001 14389405
0.036829926 0.0037180067 0.18700001 14915744
0.037709285 0.0037180067 0.18700001 15113377
0.038588647 0.0037180067 0.18700001 14718876
0.039468009 0.0037180067 0.18700001 15179427
0.040347368 0.0037180067 0.18700001 15376804
0.041226726 0.0037180067 0.18700001 16626612
0.042106088 0.0037180067 0.18700001 15511213
0.042985447 0.0037180067 0.18700001 14198181
0.043864809 0.0037180067 0.18700001 10517366
0.044983443 0.0037378892 0.18800001 11113103
0.045867506 0.0037378892 0.18800001 8551285
0.04675157 0.0037378892 0.18800001 6512731
-0.01769042 0.0045973673 0.18700001 4735556
-0.016811058 0.0045973673 0.18700001 6048589
-0.015931698 0.0045973673 0.18700001 10978179
-0.015052337 0.0045973673 0.18700001 11764353
-0.014172978 0.0045973673 0.18700001 12024699
-0.013293616 0.0045973673 0.18700001 14983588
-0.012414256 0.0045973673 0.18700001 14587286
-0.011473212 0.0045727822 0.186 16034729
-0.010655536 0.0045973673 0.18700001 13995146
-0.0097238962 0.0045727822 0.186 14916251
-0.008849239 0.0045727822 0.186 15048607
-0.0079745799 0.0045727822 0.186 14457244
-0.0070999227 0.0045727822 0.186 16762061
-0.0062252646 0.0045727822 0.186 15642547
-0.0053506065 0.0045727822 0.186 15245990
-0.0044759484 0.0045727822 0.186 14852000
-0.0036012908 0.0045727822 0.186 14261146
-0.0027266329 0.0045727822 0.186 13211286
-0.0018619319 0.0045973673 0.18700001 12817043
-0.00098257139 0.0045973673 0.18700001 13471891
-0.00010321107 0.0045973673 0.18700001 13864853
0.00077614927 0.0045973673 0.18700001 14457503
0.0016555098 0.0045973673 0.18700001 14260378
0.0025348703 0.0045973673 0.18700001 14260378
0.0034142304 0.0045973673 0.18700001 14062999
0.0042935908 0.0045973673 0.18700001 13470862
0.0051729511 0.0045973673 0.18700001 13602448
0.006052312 0.0045973673 0.18700001 13470860
0.0069316719 0.0045973673 0.18700001 13865618
0.0078110327 0.0045973673 0.18700001 14128277
0.0086903926 0.0045973673 0.18700001 15444137
0.009569753 0.0045973673 0.18700001 13337993
0.010449113 0.0045973673 0.18700001 13798542
0.011328474 0.0045973673 0.18700001 14194070
0.012207834 0.0045973673 0.18700001 13930900
0.013087194 0.0045973673 0.18700001 14326171
0.013966555 0.0045973673 0.18700001 14128790
0.014845916 0.0045973673 0.18700001 14194070
0.015725276 0.0045973673 0.18700001 12615551
0.016604636 0.0045973673 0.18700001 14391451
0.017483996 0.0045973673 0.18700001 13601681
0.018363358 0.0045973673 0.18700001 13470095
0.019242717 0.0045973673 0.18700001 13074821
0.020122077 0.0045973673 0.18700001 12417659
0.021001438 0.0045973673 0.18700001 12878210
0.0218808 0.0045973673 0.18700001 14193566
0.022760158 0.0045973673 0.18700001 14394542
0.023639519 0.0045973673 0.18700001 16774903
0.024518881 0.0045973673 0.18700001 16772591
0.025398241 0.0045973673 0.18700001 16764376
0.026277602 0.0045973673 0.18700001 16363965
0.027156962 0.0045973673 0.18700001 14587290
0.028036321 0.0045973673 0.18700001 13995153
0.028915681 0.0045973673 0.18700001 14851750
0.029795041 0.0045973673 0.18700001 14260644
0.030674402 0.0045973673 0.18700001 13208208
0.031553764 0.0045973673 0.18700001 13405069
0.032606564 0.0046219518 0.18800001 16763851
0.033490628 0.0046219518 0.18800001 16564676
0.034374688 0.0046219518 0.18800001 16763084
0.035258751 0.0046219518 0.18800001 16764884
0.036142815 0.0046219518 0.18800001 13600911
0.036829926 0.0045973673 0.18700001 15113377
0.037709285 0.0045973673 0.18700001 15309984
0.038588647 0.0045973673 0.18700001 14587288
0.039468009 0.0045973673 0.18700001 13865107
0.040347368 0.0045973673 0.18700001 14852002
0.041226726 0.0045973673 0.18700001 13012876
0.042106088 0.0045973673 0.18700001 9529708
0.042985447 0.0045973673 0.18700001 4599860
0.043864809 0.0045973673 0.18700001 3879477
0.044983443 0.0046219518 0.18800001 4012346
0.045867506 0.0046219518 0.18800001 3815737
-0.017879622 0.0055353022 0.18900001 3158836
-0.016900957 0.0055060149 0.18800001 4407876
-0.016016895 0.0055060149 0.18800001 4865347
-0.01513283 0.0055060149 0.18800001 7229265
-0.014248769 0.0055060149 0.18800001 10120814
-0.013293616 0.0054767276 0.18700001 11499385
-0.012414256 0.0054767276 0.18700001 12353664
-0.011534896 0.0054767276 0.18700001 12483963
-0.010655536 0.0054767276 0.18700001 12746622
-0.009776175 0.0054767276 0.18700001 12944001
-0.0088968156 0.0054767276 0.18700001 13141380
-0.0080174543 0.0054767276 0.18700001 14062484
-0.0071380944 0.0054767276 0.18700001 13996693
-0.0062587336 0.0054767276 0.18700001 13997206
-0.0053793732 0.0054767276 0.18700001 14062999
-0.0045000128 0.0054767276 0.18700001 14128792
-0.0036206525 0.0054767276 0.18700001 13800856
-0.0027412924 0.0054767276 0.18700001 11830148
-0.0018619319 0.0054767276 0.18700001 12093834
-0.00098257139 0.0054767276 0.18700001 12682889
-0.00010321107 0.0054767276 0.18700001 12945288
0.00077614927 0.0054767276 0.18700001 13076104
0.0016555098 0.0054767276 0.18700001 13865620
0.0025348703 0.0054767276 0.18700001 13274253
0.0034142304 0.0054767276 0.18700001 13208460
0.0042935908 0.0054767276 0.18700001 12682629
0.0051729511 0.0054767276 0.18700001 12814215
0.006052312 0.0054767276 0.18700001 12814213
0.0069316719 0.0054767276 0.18700001 12485248
0.0078110327 0.0054767276 0.18700001 13405839
0.0086903926 0.0054767276 0.18700001 13076104
0.009569753 0.0054767276 0.18700001 13075589
0.010449113 0.0054767276 0.18700001 13141380
0.011328474 0.0054767276 0.18700001 13272966
0.012207834 0.0054767276 0.18700001 13207175
0.013087194 0.0054767276 0.18700001 12483452
0.013966555 0.0054767276 0.18700001 12549245
0.014845916 0.0054767276 0.18700001 12286073
0.015725276 0.0054767276 0.18700001 12154487
0.016604636 0.0054767276 0.18700001 12878723
0.017483996 0.0054767276 0.18700001 13076104
0.018363358 0.0054767276 0.18700001 13207690
0.019242717 0.0054767276 0.18700001 13339276
0.020122077 0.0054767276 0.18700001 13076102
0.021001438 0.0054767276 0.18700001 13076102
0.0218808 0.0054767276 0.18700001 13074821
0.022760158 0.0054767276 0.18700001 13336971
0.023639519 0.0054767276 0.18700001 13404050
0.024518881 0.0054767276 0.18700001 15642297
0.025398241 0.0054767276 0.18700001 15049390
0.026277602 0.0054767276 0.18700001 15970231
0.027156962 0.0054767276 0.18700001 16765907
0.028036321 0.0054767276 0.18700001 12879241
0.028915681 0.0054767276 0.18700001 15642560
0.029795041 0.0054767276 0.18700001 14590384
0.030674402 0.0054767276 0.18700001 14129569
0.031553764 0.0054767276 0.18700001 14392734
0.032606564 0.0055060149 0.18800001 15247789
0.033490628 0.0055060149 0.18800001 15972025
0.034374688 0.0055060149 0.18800001 16764879
0.035258751 0.0055060149 0.18800001 16765652
0.036142815 0.0055060149 0.18800001 13337993
0.036829926 0.0054767276 0.18700001 14193302
0.037709285 0.0054767276 0.18700001 14719644
0.038588647 0.0054767276 0.18700001 14129558
0.039468009 0.0054767276 0.18700001 12025211
0.040347368 0.0054767276 0.18700001 11370363
0.041226726 0.0054767276 0.18700001 9137260
0.042106088 0.0054767276 0.18700001 3614761
0.042985447 0.0054767276 0.18700001 4012599
0.043864809 0.0054767276 0.18700001 3487799
0.044744167 0.0054767276 0.18700001 3356213
0.04562353 0.0054767276 0.18700001 3224627
0.046502892 0.0054767276 0.18700001 3158836
-0.017879622 0.0064240671 0.18900001 3158836
-0.016990857 0.0064240671 0.18900001 2961457
-0.016187288 0.0064580571 0.19000001 2961457
-0.015293819 0.0064580571 0.19000001 3286315
-0.014324561 0.0064240671 0.18900001 8018781
-0.013435795 0.0064240671 0.18900001 9265505
-0.012480643 0.0063900775 0.18800001 11369595
-0.01159658 0.0063900775 0.18800001 11236980
-0.010712517 0.0063900775 0.18800001 11827832
-0.009776175 0.0063560875 0.18700001 12485500
-0.0088968156 0.0063560875 0.18700001 12682879
-0.0080174543 0.0063560875 0.18700001 12747907
-0.0071380944 0.0063560875 0.18700001 12484737
-0.0062587336 0.0063560875 0.18700001 13011594
-0.0053793732 0.0063560875 0.18700001 13208973
-0.0045000128 0.0063560875 0.18700001 13800856
-0.0036206525 0.0063560875 0.18700001 13473177
-0.0027412924 0.0063560875 0.18700001 11369859
-0.0018619319 0.0063560875 0.18700001 11238271
-0.00098257139 0.0063560875 0.18700001 11894656
-0.00010321107 0.0063560875 0.18700001 12617350
0.00077614927 0.0063560875 0.18700001 12814727
0.0016555098 0.0063560875 0.18700001 13143692
0.0025348703 0.0063560875 0.18700001 11631486
0.0034142304 0.0063560875 0.18700001 11565693
0.0043165511 0.0063900775 0.18800001 11894143
0.0052006142 0.0063900775 0.18800001 12157315
0.0060846773 0.0063900775 0.18800001 12551557
0.0069687399 0.0063900775 0.18800001 12222592
0.007852803 0.0063900775 0.18800001 12748168
0.0087368656 0.0063900775 0.18800001 13076620
0.0096209282 0.0063900775 0.18800001 13076102
0.010504992 0.0063900775 0.18800001 12944516
0.011389053 0.0063900775 0.18800001 12944516
0.012273116 0.0063900775 0.18800001 12681344
0.01315718 0.0063900775 0.18800001 12089209
0.014041243 0.0063900775 0.18800001 12155002
0.014925306 0.0063900775 0.18800001 12155002
0.015809368 0.0063900775 0.18800001 11891830
0.016693432 0.0063900775 0.18800001 12287104
0.017577494 0.0063900775 0.18800001 12352899
0.018461557 0.0063900775 0.18800001 12747655
0.019345619 0.0063900775 0.18800001 12813702
0.020229682 0.0063900775 0.18800001 13076874
0.021113746 0.0063900775 0.18800001 13208458
0.021997809 0.0063900775 0.18800001 13405067
0.022881871 0.0063900775 0.18800001 13207690
0.023765935 0.0063900775 0.18800001 14456220
0.024649998 0.0063900775 0.18800001 14719394
0.02553406 0.0063900775 0.18800001 15837875
0.026418123 0.0063900775 0.18800001 14325404
0.027302187 0.0063900775 0.18800001 13996952
0.028186247 0.0063900775 0.18800001 16169406
0.028915681 0.0063560875 0.18700001 16766433
0.029954374 0.0063900775 0.18800001 13603743
0.030838437 0.0063900775 0.18800001 12616330
0.031722501 0.0063900775 0.18800001 15313584
0.032606564 0.0063900775 0.18800001 12616582
0.033490628 0.0063900775 0.18800001 12879754
0.034374688 0.0063900775 0.18800001 11958652
0.035258751 0.0063900775 0.18800001 11826807
0.036142815 0.0063900775 0.18800001 11891830
0.036829926 0.0063560875 0.18700001 11694451
0.037709285 0.0063560875 0.18700001 11695734
0.038588647 0.0063560875 0.18700001 11566715
0.039468009 0.0063560875 0.18700001 11502980
0.040347368 0.0063560875 0.18700001 6047044
0.041226726 0.0063560875 0.18700001 3419177
0.042106088 0.0063560875 0.18700001 3421232
0.042985447 0.0063560875 0.18700001 3158317
0.043864809 0.0063560875 0.18700001 2961708
-0.017974224 0.0073515251 0.19000001 2764846
-0.017080756 0.0073515251 0.19000001 2961455
-0.016272483 0.0073902179 0.19100001 2961455
-0.015454805 0.0074289092 0.192 3354418
-0.014476144 0.0073902179 0.19100001 6047053
-0.013577973 0.0073902179 0.19100001 8083289
-0.012547029 0.0073128329 0.18900001 9792878
-0.011658264 0.0073128329 0.18900001 10712181
-0.010769499 0.0073128329 0.18900001 11236726
-0.0098284548 0.0072741406 0.18800001 12157567
-0.0089443922 0.0072741406 0.18800001 12683911
-0.0080603287 0.0072741406 0.18800001 12617348
-0.0071762661 0.0072741406 0.18800001 12156799
-0.006292203 0.0072741406 0.18800001 12288385
-0.0054081399 0.0072741406 0.18800001 12288385
-0.0045240773 0.0072741406 0.18800001 12486534
-0.0036400142 0.0072741406 0.18800001 11829894
-0.0027559516 0.0072741406 0.18800001 10910076
-0.0018718888 0.0072741406 0.18800001 11436420
-0.0009878258 0.0072741406 0.18800001 11566461
-0.000103763 0.0072741406 0.18800001 11236980
0.00078029983 0.0072741406 0.18800001 12157569
0.0016643627 0.0072741406 0.18800001 12157828
0.0025484257 0.0072741406 0.18800001 11500931
0.0034324883 0.0072741406 0.18800001 11434623
0.0043165511 0.0072741406 0.18800001 11763840
0.0052006142 0.0072741406 0.18800001 12486793
0.0060846773 0.0072741406 0.18800001 12420487
0.0069687399 0.0072741406 0.18800001 12682889
0.007852803 0.0072741406 0.18800001 12616582
0.0087368656 0.0072741406 0.18800001 12616582
0.0096209282 0.0072741406 0.18800001 12813448
0.010504992 0.0072741406 0.18800001 12879241
0.011449634 0.0073128329 0.18900001 12484483
0.012338399 0.0073128329 0.18900001 12089725
0.013227165 0.0073128329 0.18900001 12089725
0.014115931 0.0073128329 0.18900001 12418690
0.015004696 0.0073128329 0.18900001 12221311
0.015893461 0.0073128329 0.18900001 12747655
0.016782226 0.0073128329 0.18900001 12616582
0.017670993 0.0073128329 0.18900001 12616582
0.018559758 0.0073128329 0.18900001 12287617
0.019448522 0.0073128329 0.18900001 12484996
0.020337287 0.0073128329 0.18900001 12353410
0.021226054 0.0073128329 0.18900001 12616836
0.022114819 0.0073128329 0.18900001 12485250
0.023003584 0.0073128329 0.18900001 12813702
0.023892349 0.0073128329 0.18900001 12353151
0.024781115 0.0073128329 0.18900001 12417920
0.02566988 0.0073128329 0.18900001 13141643
0.026558645 0.0073128329 0.18900001 12484737
0.027302187 0.0072741406 0.18800001 13340046
0.028186247 0.0072741406 0.18800001 12879495
0.02907031 0.0072741406 0.18800001 12156033
0.029954374 0.0072741406 0.18800001 12155779
0.030838437 0.0072741406 0.18800001 11761021
0.031722501 0.0072741406 0.18800001 11497849
0.032606564 0.0072741406 0.18800001 11892861
0.033490628 0.0072741406 0.18800001 12419203
0.034374688 0.0072741406 0.18800001 12484996
0.035258751 0.0072741406 0.18800001 12419457
0.036142815 0.0072741406 0.18800001 11827320
0.036829926 0.0072354483 0.18700001 11630455
0.037709285 0.0072354483 0.18700001 11698560
0.038588647 0.0072354483 0.18700001 10713982
-0.018068824 0.0082883872 0.19100001 3028018
-0.017080756 0.0082449932 0.19000001 2830639
-0.016442874 0.0083751762 0.193 2633260
-0.015615793 0.0084185712 0.19400001 2698283
-0.014627726 0.0083751762 0.193 3417899
-0.01372015 0.0083751762 0.193 7493720
-0.012613416 0.0082449932 0.19000001 9465710
-0.011719949 0.0082449932 0.19000001 10780027
-0.010826481 0.0082449932 0.19000001 10712179
-0.0098807337 0.0082015982 0.18900001 11763840
-0.0089919688 0.0082015982 0.18900001 12158598
-0.008103203 0.0082015982 0.18900001 12684172
-0.0072144377 0.0082015982 0.18900001 12684426
-0.0063256719 0.0082015982 0.18900001 13013391
-0.0054369066 0.0082015982 0.18900001 13144977
-0.0045481413 0.0082015982 0.18900001 13277079
-0.0036593762 0.0082015982 0.18900001 10317939
-0.0027706109 0.0082015982 0.18900001 11567236
-0.0018818455 0.0082015982 0.18900001 11961734
-0.0009930802 0.0082015982 0.18900001 11631484
-0.00010431492 0.0082015982 0.18900001 11697277
0.00078445039 0.0082015982 0.18900001 11500670
0.0016732158 0.0082015982 0.18900001 11633031
0.0025619811 0.0082015982 0.18900001 11303550
0.0034507464 0.0082015982 0.18900001 12224906
0.0043395115 0.0082015982 0.18900001 11961221
0.0052282768 0.0082015982 0.18900001 12355979
0.0061170426 0.0082015982 0.18900001 12355207
0.0070058075 0.0082015982 0.18900001 12618379
0.0078945737 0.0082015982 0.18900001 12683659
0.0087833386 0.0082015982 0.18900001 12748682
0.0096721034 0.0082015982 0.18900001 11695994
0.010560869 0.0082015982 0.18900001 12682375
0.011510214 0.0082449932 0.19000001 12748682
0.012403682 0.0082449932 0.19000001 12353926
0.01329715 0.0082449932 0.19000001 12156547
0.014190618 0.0082449932 0.19000001 12090754
0.015084086 0.0082449932 0.19000001 12814475
0.015977552 0.0082449932 0.19000001 12617096
0.016871022 0.0082449932 0.19000001 12222338
0.01776449 0.0082449932 0.19000001 12090752
0.018657958 0.0082449932 0.19000001 12090752
0.019551424 0.0082449932 0.19000001 12090752
0.020444892 0.0082449932 0.19000001 11695994
0.02133836 0.0082449932 0.19000001 12748422
0.022231828 0.0082449932 0.19000001 12682629
0.023125295 0.0082449932 0.19000001 12156285
0.024018764 0.0082449932 0.19000001 11958393
0.024912233 0.0082449932 0.19000001 11564148
0.025805701 0.0082449932 0.19000001 11761527
0.026699169 0.0082449932 0.19000001 12024699
0.027447412 0.0082015982 0.18900001 11761527
0.028336175 0.0082015982 0.18900001 11366515
0.02922494 0.0082015982 0.18900001 11695480
0.030113706 0.0082015982 0.18900001 12024447
0.031002471 0.0082015982 0.18900001 12221826
0.031891238 0.0082015982 0.18900001 11893375
0.032780003 0.0082015982 0.18900001 11630973
0.033668768 0.0082015982 0.18900001 11433594
0.034557533 0.0082015982 0.18900001 12025477
0.035258751 0.0081582032 0.18800001 11696766
0.036142815 0.0081582032 0.18800001 11631484
0.037026878 0.0081582032 0.18800001 11106939
0.037709285 0.0081148082 0.18700001 9925495
-0.016528072 0.0093308492 0.19400001 3291192
-0.015776781 0.0094270436 0.19600001 3422006
-0.0148551 0.0094270436 0.19600001 3683634
-0.013862328 0.0093789464 0.19500001 6113864
-0.012679802 0.0091865584 0.19100001 6899783
-0.011719949 0.0091384612 0.19000001 8609371
-0.010940443 0.0092346547 0.192 10450292
-0.0099330125 0.0091384612 0.19000001 11238525
-0.0090395454 0.0091384612 0.19000001 11238525
-0.0081460774 0.0091384612 0.19000001 11566463
-0.0072526094 0.0091384612 0.19000001 12486793
-0.0063591413 0.0091384612 0.19000001 12750735
-0.0054656737 0.0091384612 0.19000001 12488076
-0.0045722057 0.0091384612 0.19000001 12290186
-0.0036787379 0.0091384612 0.19000001 11237757
-0.0027852703 0.0091384612 0.19000001 10908792
-0.0018918024 0.0091384612 0.19000001 10777206
-0.00099833461 0.0091384612 0.19000001 11105140
-0.00010486686 0.0091384612 0.19000001 11434105
0.00078860088 0.0091384612 0.19000001 11106685
0.0016820688 0.0091384612 0.19000001 11370627
0.0025755367 0.0091384612 0.19000001 11369597
0.0034690043 0.0091384612 0.19000001 12421772
0.0043624719 0.0091384612 0.19000001 12486795
0.0052559399 0.0091384612 0.19000001 12552586
0.0061494079 0.0091384612 0.19000001 12815758
0.0070428755 0.0091384612 0.19000001 12486793
0.0079363436 0.0091384612 0.19000001 12289414
0.0088298116 0.0091384612 0.19000001 11367031
0.0097232787 0.0091384612 0.19000001 11235443
0.010616747 0.0091384612 0.19000001 12287617
0.011570795 0.0091865584 0.19100001 12485510
0.012468965 0.0091865584 0.19100001 12486280
0.013367135 0.0091865584 0.19100001 12157830
0.014265305 0.0091865584 0.19100001 11368060
0.015163477 0.0091865584 0.19100001 11236474
0.016061645 0.0091865584 0.19100001 11894404
0.016959816 0.0091865584 0.19100001 12157576
0.017857987 0.0091865584 0.19100001 12026244
0.018756157 0.0091865584 0.19100001 12157828
0.019654326 0.0091865584 0.19100001 11959936
0.020552497 0.0091865584 0.19100001 11565178
0.021450669 0.0091865584 0.19100001 11761787
0.022348838 0.0091865584 0.19100001 12222592
0.023247007 0.0091865584 0.19100001 12682629
0.024145178 0.0091865584 0.19100001 11893627
0.02504335 0.0091865584 0.19100001 11762041
0.025941519 0.0091865584 0.19100001 11827834
0.02683969 0.0091865584 0.19100001 11827834
0.027592637 0.0091384612 0.19000001 11433076
0.028486101 0.0091384612 0.19000001 11235443
0.029379569 0.0091384612 0.19000001 11235443
0.030273039 0.0091384612 0.19000001 12024961
0.031166507 0.0091384612 0.19000001 12090754
0.032059975 0.0091384612 0.19000001 11894145
0.032953441 0.0091384612 0.19000001 10645361
0.033846911 0.0091384612 0.19000001 10908533
0.034557533 0.009090364 0.18900001 11105912
0.035258751 0.0090422668 0.18800001 11369857
0.036142815 0.0090422668 0.18800001 10121843
0.037026878 0.0090422668 0.18800001 8809067
-0.016868858 0.010454325 0.19800001 3422010
-0.016018264 0.010507125 0.19900002 3750203
-0.015082474 0.010507125 0.19900002 3815994
-0.014146684 0.010507125 0.19900002 5062975
-0.012878961 0.010243126 0.19400001 6177858
-0.011168369 0.010348726 0.19600001 7621963
-0.0099852914 0.010084728 0.19100001 10252913
-0.0090395454 0.010031928 0.19000001 11699846
-0.0081460774 0.010031928 0.19000001 11370881
-0.0072526094 0.010031928 0.19000001 11699074
-0.0063591413 0.010031928 0.19000001 11962246
-0.0054656737 0.010031928 0.19000001 11895941
-0.0045722057 0.010031928 0.19000001 11895941
-0.0036787379 0.010031928 0.19000001 11369597
-0.0027852703 0.010031928 0.19000001 11105912
-0.0018918024 0.010031928 0.19000001 11040119
-0.00099833461 0.010031928 0.19000001 10974326
-0.00010486686 0.010031928 0.19000001 11763842
0.00078860088 0.010031928 0.19000001 11766670
0.0016909218 0.010084728 0.19100001 11634312
0.0025890921 0.010084728 0.19100001 12290184
0.0034872622 0.010084728 0.19100001 12487563
0.0043854327 0.010084728 0.19100001 12354694
0.005283603 0.010084728 0.19100001 12353924
0.0061817733 0.010084728 0.19100001 12288131
0.0070799435 0.010084728 0.19100001 11894143
0.0079781143 0.010084728 0.19100001 11565180
0.0088762837 0.010084728 0.19100001 11433594
0.0097744539 0.010084728 0.19100001 11170420
0.010672624 0.010084728 0.19100001 11433592
0.011631373 0.010137527 0.192 11958652
0.012534246 0.010137527 0.192 12748682
0.013437119 0.010137527 0.192 12223110
0.014339992 0.010137527 0.192 11236474
0.015242865 0.010137527 0.192 10973302
0.016145736 0.010137527 0.192 11499646
0.01704861 0.010137527 0.192 11565693
0.017951483 0.010137527 0.192 11236728
0.018854355 0.010137527 0.192 10973556
0.019757228 0.010137527 0.192 11170420
0.020660101 0.010137527 0.192 11499898
0.021562973 0.010137527 0.192 11565691
0.022465847 0.010137527 0.192 11829117
0.023368718 0.010137527 0.192 11697018
0.024271591 0.010137527 0.192 12091776
0.025174465 0.010137527 0.192 12091522
0.026077338 0.010137527 0.192 11894143
0.02698021 0.010137527 0.192 12025729
0.027737861 0.010084728 0.19100001 11630971
0.028636029 0.010084728 0.19100001 11104629
0.0295342 0.010084728 0.19100001 10841457
0.03043237 0.010084728 0.19100001 11039349
0.031330541 0.010084728 0.19100001 11894658
0.032228712 0.010084728 0.19100001 11829635
0.033126883 0.010084728 0.19100001 11632769
0.033846911 0.010031928 0.19000001 10317423
0.034557533 0.0099791288 0.18900001 10252146
0.035446297 0.0099791288 0.18900001 8411740
-0.017124444 0.011557919 0.20100001 4343110
-0.016179251 0.011557919 0.20100001 4277317
-0.015385639 0.011672923 0.20300001 4343112
-0.014431039 0.011672923 0.20300001 4868427
-0.013609212 0.011787928 0.20500001 5523528
-0.012583523 0.011730426 0.20400001 6308929
-0.011396295 0.011500417 0.2 7491404
-0.01003757 0.0110404 0.192 8017748
-0.009087122 0.010982899 0.19100001 9596012
-0.0081460774 0.010925396 0.19000001 11306371
-0.007290781 0.010982899 0.19100001 11372164
-0.0063926107 0.010982899 0.19100001 11436674
-0.0054944404 0.010982899 0.19100001 11632767
-0.0045962702 0.010982899 0.19100001 11501181
-0.0036980996 0.010982899 0.19100001 11830146
-0.0027999296 0.010982899 0.19100001 11895941
-0.0019017593 0.010982899 0.19100001 11369597
-0.001003589 0.010982899 0.19100001 11763842
-0.00010541879 0.010982899 0.19100001 11962766
0.00079275144 0.010982899 0.19100001 12096148
0.0016909218 0.010982899 0.19100001 12028559
0.0025890921 0.010982899 0.19100001 12421772
0.0035055198 0.0110404 0.192 12355979
0.0044083926 0.0110404 0.192 12289416
0.0053112651 0.0110404 0.192 11959938
0.0062141381 0.0110404 0.192 12157317
0.0071170107 0.0110404 0.192 12157315
0.0080198841 0.0110404 0.192 11762557
0.0089227557 0.0110404 0.192 11433592
0.0098256283 0.0110404 0.192 11630201
0.010728502 0.0110404 0.192 11630201
0.011691954 0.011097902 0.193 11695994
0.012599529 0.011097902 0.193 12748168
0.013507104 0.011097902 0.193 12222338
0.01441468 0.011097902 0.193 11630203
0.015322255 0.011097902 0.193 10973043
0.016229829 0.011097902 0.193 10841457
0.017137405 0.011097902 0.193 10973556
0.01804498 0.011097902 0.193 11039347
0.018952556 0.011097902 0.193 11105140
0.01986013 0.011097902 0.193 10974324
0.020767706 0.011097902 0.193 11238009
0.021675281 0.011097902 0.193 11435390
0.022582857 0.011097902 0.193 11237496
0.023490431 0.011097902 0.193 12092035
0.024398006 0.011097902 0.193 12157828
0.025305582 0.011097902 0.193 12421000
0.026213158 0.011097902 0.193 12421000
0.027120734 0.011097902 0.193 11433592
0.027883084 0.0110404 0.192 11038836
0.028785953 0.0110404 0.192 11368314
0.029688828 0.0110404 0.192 11368314
0.0305917 0.0110404 0.192 11236728
0.031494573 0.0110404 0.192 10513775
0.032397445 0.0110404 0.192 10711667
0.033126883 0.010982899 0.19100001 10843253
0.033846911 0.010925396 0.19000001 10120560
-0.017124444 0.012503114 0.20100001 4606284
-0.016340237 0.012627522 0.20300001 3620159
-0.015537222 0.012751932 0.20500001 3751745
-0.014644306 0.012814137 0.20600002 3554366
-0.013874757 0.01300075 0.20900001 4340798
-0.012830258 0.012938545 0.208 5915204
-0.011681203 0.012751932 0.20500001 6769482
-0.007290781 0.011881068 0.19100001 9990770
-0.0063926107 0.011881068 0.19100001 11043199
-0.0054944404 0.011881068 0.19100001 11305601
-0.0045962702 0.011881068 0.19100001 11699076
-0.0036980996 0.011881068 0.19100001 11699076
-0.0027999296 0.011881068 0.19100001 11501695
-0.0019017593 0.011881068 0.19100001 11764353
-0.001003589 0.011881068 0.19100001 11830660
-0.00010541879 0.011881068 0.19100001 11437703
0.00079275144 0.011881068 0.19100001 12094865
0.0016997746 0.011943272 0.192 11830410
0.0026026473 0.011943272 0.192 11632515
0.0035237779 0.012005477 0.193 11764355
0.004431353 0.012005477 0.193 11501183
0.0053389282 0.012005477 0.193 11698049
0.0062465039 0.012005477 0.193 11369084
0.0071540787 0.012005477 0.193 11303289
0.0080616539 0.012005477 0.193 11894143
0.0089692287 0.012005477 0.193 12617350
0.0098768035 0.012005477 0.193 11893627
0.010784379 0.012005477 0.193 11827320
0.011752534 0.012067682 0.19400001 11695994
0.012664812 0.012067682 0.19400001 11103857
0.01357709 0.012067682 0.19400001 11499385
0.014489368 0.012067682 0.19400001 11828865
0.015401646 0.012067682 0.19400001 12157828
0.016313922 0.012067682 0.19400001 11236980
0.017226201 0.012067682 0.19400001 11237496
0.018138478 0.012067682 0.19400001 11500668
0.019050756 0.012067682 0.19400001 11961219
0.019963032 0.012067682 0.19400001 12290184
0.020875311 0.012067682 0.19400001 11435388
0.021787588 0.012067682 0.19400001 11172218
0.022699866 0.012067682 0.19400001 10908533
0.023612143 0.012067682 0.19400001 11500670
0.02452442 0.012067682 0.19400001 12027014
0.025436699 0.012067682 0.19400001 11895428
0.026348976 0.012067682 0.19400001 11960451
0.027261255 0.012067682 0.19400001 12092035
0.028028307 0.012005477 0.193 11698047
0.028935881 0.012005477 0.193 11369082
0.029843457 0.012005477 0.193 10908533
0.030751033 0.012005477 0.193 10843253
0.031658608 0.012005477 0.193 10580595
0.032397445 0.011943272 0.192 10449009
0.033126883 0.011881068 0.19100001 9133665
-0.015764596 0.013916657 0.208 1975080
-0.014857572 0.013983564 0.20900001 2829873
-0.014073917 0.014184286 0.21200001 3157809
-0.013015311 0.014117379 0.21100001 5653578
-0.011852147 0.013916657 0.208 5915204
-0.0063926107 0.012779239 0.19100001 9924977
-0.0054944404 0.012779239 0.19100001 10911359
-0.0045962702 0.012779239 0.19100001 11437187
-0.0036980996 0.012779239 0.19100001 11305601
-0.0027999296 0.012779239 0.19100001 10976123
-0.0019017593 0.012779239 0.19100001 11895941
-0.001003589 0.012779239 0.19100001 11963018
-0.00010541879 0.012779239 0.19100001 12489621
0.00079690194 0.012846145 0.192 11107457
0.0017086277 0.012913052 0.193 11106687
0.0026162029 0.012913052 0.193 11106685
0.0035420358 0.012979959 0.19400001 11040892
0.0044543133 0.012979959 0.19400001 10777720
0.0053665913 0.012979959 0.19400001 10842999
0.0062788692 0.012979959 0.19400001 10843253
0.0071911463 0.012979959 0.19400001 11369595
0.0081034247 0.012979959 0.19400001 11434105
0.0090157017 0.012979959 0.19400001 11433592
0.0099279787 0.012979959 0.19400001 12157315
0.010840257 0.012979959 0.19400001 12157315
0.011813114 0.013046866 0.19500001 11630971
0.012730094 0.013046866 0.19500001 11565178
0.013647075 0.013046866 0.19500001 11170933
0.014564055 0.013046866 0.19500001 11828865
0.015481035 0.013046866 0.19500001 12026242
0.016398015 0.013046866 0.19500001 12092289
0.017314995 0.013046866 0.19500001 11961473
0.018231975 0.013046866 0.19500001 12027266
0.019148955 0.013046866 0.19500001 11764094
0.020065935 0.013046866 0.19500001 11040371
0.020982916 0.013046866 0.19500001 11040371
0.021899896 0.013046866 0.19500001 11238263
0.022816876 0.013046866 0.19500001 11040630
0.023733856 0.013046866 0.19500001 11369595
0.024650836 0.013046866 0.19500001 11369595
0.025567817 0.013046866 0.19500001 11238009
0.026484797 0.013046866 0.19500001 11303802
0.027401777 0.013046866 0.19500001 11040630
0.028173532 0.012979959 0.19400001 11369597
0.029085808 0.012979959 0.19400001 10909560
0.029998086 0.012979959 0.19400001 10120044
0.030910363 0.012979959 0.19400001 9396837
0.031658608 0.012913052 0.193 9528936
0.032397445 0.012846145 0.192 8739420
-0.015991969 0.015109599 0.21100001 1777955
-0.01499975 0.015109599 0.21100001 2238506
-0.01420669 0.015324427 0.21400002 2172713
-0.013262047 0.015396035 0.215 2761768
-0.012137054 0.015252817 0.21300001 4798269
-0.011344546 0.015539255 0.21700001 5915456
-0.0063926107 0.013677409 0.19100001 9663089
-0.0054944404 0.013677409 0.19100001 10780802
-0.0045962702 0.013677409 0.19100001 11306630
-0.0036980996 0.013677409 0.19100001 11371910
-0.0027999296 0.013677409 0.19100001 11174015
-0.0019017593 0.013677409 0.19100001 10976123
-0.001003589 0.013677409 0.19100001 10713982
-0.00010541879 0.013677409 0.19100001 11175046
0.00079690194 0.013749017 0.192 10581626
0.0017086277 0.013820628 0.193 10713212
0.0026297583 0.013892237 0.19400001 10581111
0.0035420358 0.013892237 0.19400001 10449525
0.0044772737 0.013963846 0.19500001 10317939
0.0053942539 0.013963846 0.19500001 11041146
0.0063112346 0.013963846 0.19500001 11632769
0.0072282143 0.013963846 0.19500001 11830148
0.0081451945 0.013963846 0.19500001 11632769
0.0090621747 0.013963846 0.19500001 10909046
0.009979154 0.013963846 0.19500001 10974326
0.010896134 0.013963846 0.19500001 11040119
0.011873694 0.014035456 0.19600001 10908533
0.012795377 0.014035456 0.19600001 11170935
0.01371706 0.014035456 0.19600001 11763842
0.014638742 0.014035456 0.19600001 11237498
0.015639815 0.014107066 0.19700001 11105912
0.0165662 0.014107066 0.19700001 11566463
0.017492585 0.014107066 0.19700001 11435388
0.01841897 0.014107066 0.19700001 11632767
0.019345356 0.014107066 0.19700001 11369849
0.020271739 0.014107066 0.19700001 11369849
0.021198126 0.014107066 0.19700001 11238263
0.02212451 0.014107066 0.19700001 10580079
0.023050897 0.014107066 0.19700001 10251116
0.02397728 0.014107066 0.19700001 9922151
0.024903666 0.014107066 0.19700001 10053737
0.025830051 0.014107066 0.19700001 10712181
0.026756436 0.014107066 0.19700001 10777974
0.027542299 0.014035456 0.19600001 10317939
0.028463982 0.014035456 0.19600001 9396837
0.029385662 0.014035456 0.19600001 9660263
0.030307345 0.014035456 0.19600001 9529190
0.030910363 0.013892237 0.19400001 9267301
0.03182264 0.013892237 0.19400001 9005159
-0.014273075 0.016407065 0.215 2106918
-0.01332373 0.016483378 0.21600001 2303527
-0.012364981 0.01655969 0.21700001 2565929
-0.0045962702 0.01457558 0.19100001 10913158
-0.0036980996 0.01457558 0.19100001 10913158
-0.0027999296 0.01457558 0.19100001 10780802
-0.0019017593 0.01457558 0.19100001 10188151
-0.001003589 0.01457558 0.19100001 10913158
-0.00010541879 0.01457558 0.19100001 10649988
0.00079690194 0.014651891 0.192 10977665
0.0017086277 0.014728203 0.193 10912126
0.0026297583 0.014804515 0.19400001 10911613
0.0035420358 0.014804515 0.19400001 10976636
0.0044772737 0.014880827 0.19500001 11041916
0.0053942539 0.014880827 0.19500001 11173502
0.0063112346 0.014880827 0.19500001 11239295
0.0072282143 0.014880827 0.19500001 11107709
0.0081451945 0.014880827 0.19500001 11041916
0.0090621747 0.014880827 0.19500001 11238525
0.009979154 0.014880827 0.19500001 10909560
0.010896134 0.014880827 0.19500001 10909560
0.011934275 0.015033451 0.19700001 11172732
0.01286066 0.015033451 0.19700001 11041146
0.013787045 0.015033451 0.19700001 11238011
0.014788118 0.015109763 0.19800001 11698562
0.015719205 0.015109763 0.19800001 11369597
0.016650293 0.015109763 0.19800001 11369597
0.017581381 0.015109763 0.19800001 11172732
0.018512469 0.015109763 0.19800001 10909558
0.019443557 0.015109763 0.19800001 11041144
0.020374643 0.015109763 0.19800001 10120814
0.021305731 0.015109763 0.19800001 10186607
0.022236818 0.015109763 0.19800001 10186607
0.023167906 0.015109763 0.19800001 10515572
0.024098992 0.015109763 0.19800001 9857642
0.02503008 0.015109763 0.19800001 9331298
0.025961168 0.015109763 0.19800001 9200225
0.026892256 0.015109763 0.19800001 9990772
0.027823344 0.015109763 0.19800001 9398635
0.028754432 0.015109763 0.19800001 9003877
0.029685516 0.015109763 0.19800001 8741219
0.030461974 0.015033451 0.19700001 8544608
0.031229028 0.014957139 0.19600001 8151135
0.032150712 0.014957139 0.19600001 6244685
-0.0045962702 0.01547375 0.19100001 10847878
-0.0036980996 0.01547375 0.19100001 11308429
