# .PCD v0.7 - Point Cloud Data file format
VERSION 0.7
FIELDS x y z rgb
SIZE 4 4 4 4
TYPE F F F U
COUNT 1 1 1 1
WIDTH 1110
HEIGHT 1
VIEWPOINT 0 0 0 1 0 0 0
POINTS 1110
DATA ascii
-0.013945605 0.00019734756 0.18400002 12615040
-0.013080351 0.00019734756 0.18400002 12284276
-0.012215097 0.00019734756 0.18400002 13203577
-0.011411528 0.00019842009 0.185 13135472
-0.010541573 0.00019842009 0.185 11951198
-0.0096716173 0.00019842009 0.185 12345958
-0.0088016624 0.00019842009 0.185 12346471
-0.0079317065 0.00019842009 0.185 13663874
-0.0070617511 0.00019842009 0.185 15049381
-0.0061917952 0.00019842009 0.185 11497590
-0.0053218398 0.00019842009 0.185 11561848
-0.0044518844 0.00019842009 0.185 11493738
-0.0035819288 0.00019842009 0.185 11492707
-0.0027119736 0.00019842009 0.185 10901338
-0.0018420181 0.00019842009 0.185 9917023
-0.00097206264 0.00019842009 0.185 13207958
-0.0001021072 0.00019842009 0.185 11759479
0.00076784822 0.00019842009 0.185 12021363
0.0016466568 0.00019949263 0.186 16760002
0.0025213147 0.00019949263 0.186 12878221
0.0033959725 0.00019949263 0.186 12022651
0.0042706304 0.00019949263 0.186 12876672
0.0051452885 0.00019949263 0.186 12481653
0.0060199467 0.00019949263 0.186 12876411
0.0068946043 0.00019949263 0.186 12614266
0.0077692624 0.00019949263 0.186 13536653
0.0086439196 0.00019949263 0.186 12682629
0.0095185777 0.00019949263 0.186 11564408
0.010393236 0.00019949263 0.186 10973041
0.011267894 0.00019949263 0.186 11103857
0.012142551 0.00019949263 0.186 9853278
0.013017209 0.00019949263 0.186 9327448
0.013891867 0.00019949263 0.186 6565425
0.014766525 0.00019949263 0.186 5578530
0.015641183 0.00019949263 0.186 5446944
0.016515842 0.00019949263 0.186 5578015
0.017390499 0.00019949263 0.186 5973027
0.018265158 0.00019949263 0.186 5709855
0.019139815 0.00019949263 0.186 5907747
0.020014472 0.00019949263 0.186 5842722
0.020889131 0.00019949263 0.186 5317153
0.021763789 0.00019949263 0.186 5448993
0.022638446 0.00019949263 0.186 5316893
0.023386689 0.00019842009 0.185 5382173
0.024387762 0.00019949263 0.186 5580065
0.034557533 0.00020271026 0.18900001 5444882
0.035446297 0.00020271026 0.18900001 5904152
0.036335062 0.00020271026 0.18900001 5968403
0.037223827 0.00020271026 0.18900001 7480869
0.038112596 0.00020271026 0.18900001 9717831
0.039001361 0.00020271026 0.18900001 12151141
0.039890125 0.00020271026 0.18900001 12018785
0.04077889 0.00020271026 0.18900001 11953762
0.041667655 0.00020271026 0.18900001 11888485
0.04255642 0.00020271026 0.18900001 12612210
0.043445185 0.00020271026 0.18900001 13138300
0.04433395 0.00020271026 0.18900001 14059404
0.045222718 0.00020271026 0.18900001 13930900
0.046111483 0.00020271026 0.18900001 10648964
0.047000248 0.00020271026 0.18900001 4539210
-0.018073261 0.0010510506 0.18200001 3817534
-0.017312014 0.0010568256 0.18300001 4672843
-0.016451465 0.0010568256 0.18300001 5522497
-0.015590914 0.0010568256 0.18300001 11764353
-0.014810856 0.0010626006 0.18400002 12549758
-0.013945605 0.0010626006 0.18400002 12745086
-0.013080351 0.0010626006 0.18400002 13007227
-0.012215097 0.0010626006 0.18400002 14057087
-0.011411528 0.0010683755 0.185 12280676
-0.010541573 0.0010683755 0.185 12938608
-0.0096716173 0.0010683755 0.185 13070194
-0.0088016624 0.0010683755 0.185 12939376
-0.0079317065 0.0010683755 0.185 12743026
-0.0070617511 0.0010683755 0.185 11758957
-0.0061917952 0.0010683755 0.185 16766168
-0.0053218398 0.0010683755 0.185 15313593
-0.0044518844 0.0010683755 0.185 13335690
-0.0035819288 0.0010683755 0.185 11098717
-0.0027119736 0.0010683755 0.185 10506580
-0.0018420181 0.0010683755 0.185 9653333
-0.00097206264 0.0010683755 0.185 11299189
-0.0001021072 0.0010683755 0.185 10773349
0.00077199872 0.0010741506 0.186 11364199
0.0016466568 0.0010741506 0.186 11233383
0.0025213147 0.0010741506 0.186 11036006
0.0033959725 0.0010741506 0.186 10773097
0.0042706304 0.0010741506 0.186 9063249
0.0051452885 0.0010741506 0.186 8273731
0.0060199467 0.0010741506 0.186 7286320
0.0068946043 0.0010741506 0.186 6036253
0.0077692624 0.0010741506 0.186 4920085
0.0086439196 0.0010741506 0.186 4658711
0.0095185777 0.0010741506 0.186 4527385
0.010393236 0.0010741506 0.186 4593178
0.011267894 0.0010741506 0.186 4593432
0.012142551 0.0010741506 0.186 5119776
0.013017209 0.0010741506 0.186 5053983
0.013891867 0.0010741506 0.186 5251362
0.014766525 0.0010741506 0.186 4857374
0.015641183 0.0010741506 0.186 4857374
0.016515842 0.0010741506 0.186 4857374
0.017390499 0.0010741506 0.186 4923165
0.018265158 0.0010741506 0.186 4923165
0.019139815 0.0010741506 0.186 4725786
0.020014472 0.0010741506 0.186 4857372
0.020889131 0.0010741506 0.186 4989212
0.021763789 0.0010741506 0.186 4857626
0.022638446 0.0010741506 0.186 4199694
0.034557533 0.0010914756 0.18900001 4855309
0.035633843 0.0010972506 0.19000001 5117968
0.036527313 0.0010972506 0.19000001 5840921
0.037223827 0.0010914756 0.18900001 5510929
0.038112596 0.0010914756 0.18900001 6166804
0.039001361 0.0010914756 0.18900001 6231054
0.039890125 0.0010914756 0.18900001 8400170
0.04077889 0.0010914756 0.18900001 9715773
0.041667655 0.0010914756 0.18900001 10966613
0.04255642 0.0010914756 0.18900001 11296350
0.043445185 0.0010914756 0.18900001 11164512
0.04433395 0.0010914756 0.18900001 12283508
0.045222718 0.0010914756 0.18900001 14784412
0.046111483 0.0010914756 0.18900001 13801118
0.047000248 0.0010914756 0.18900001 4798784
-0.018073261 0.0019068987 0.18200001 2895662
-0.017312014 0.0019173762 0.18300001 2895662
-0.016451465 0.0019173762 0.18300001 4403244
-0.015590914 0.0019173762 0.18300001 11499898
-0.014810856 0.0019278537 0.18400002 12812932
-0.013945605 0.0019278537 0.18400002 13140614
-0.013080351 0.0019278537 0.18400002 12942206
-0.012215097 0.0019278537 0.18400002 13268346
-0.011411528 0.0019383309 0.185 12478575
-0.010541573 0.0019383309 0.185 12543596
-0.0096716173 0.0019383309 0.185 12544366
-0.0088016624 0.0019383309 0.185 12084074
-0.0079317065 0.0019383309 0.185 10638431
-0.0070617511 0.0019383309 0.185 9981017
-0.0061917952 0.0019383309 0.185 10046812
-0.0053218398 0.0019383309 0.185 10639204
-0.0044518844 0.0019383309 0.185 10771039
-0.0035819288 0.0019383309 0.185 9849163
-0.0027119736 0.0019383309 0.185 11626344
-0.0018420181 0.0019383309 0.185 10970222
-0.00097206264 0.0019383309 0.185 12682123
-0.0001021072 0.0019383309 0.185 10641511
0.00076784822 0.0019383309 0.185 10442849
0.0016466568 0.0019488084 0.186 10245722
0.0025213147 0.0019488084 0.186 10115167
0.0033959725 0.0019488084 0.186 5969954
0.0042706304 0.0019488084 0.186 5641243
0.0051452885 0.0019488084 0.186 5247768
0.0060199467 0.0019488084 0.186 5379868
0.0068946043 0.0019488084 0.186 5249052
0.0077692624 0.0019488084 0.186 5249050
0.0086439196 0.0019488084 0.186 5315356
0.0095185777 0.0019488084 0.186 5710884
0.010393236 0.0019488084 0.186 5316126
0.011267894 0.0019488084 0.186 5382173
0.012142551 0.0019488084 0.186 5052436
0.013017209 0.0019488084 0.186 5051923
0.013891867 0.0019488084 0.186 5183509
0.014766525 0.0019488084 0.186 4986645
0.015641183 0.0019488084 0.186 5446942
0.016515842 0.0019488084 0.186 5381403
0.017390499 0.0019488084 0.186 5315356
0.018265158 0.0019488084 0.186 4921370
0.019139815 0.0019488084 0.186 5250848
0.020014472 0.0019488084 0.186 5185821
0.020889131 0.0019488084 0.186 5120028
0.021763789 0.0019488084 0.186 5910314
0.033668768 0.0019802409 0.18900001 4329481
0.034557533 0.0019802409 0.18900001 5315606
0.035633843 0.0019907183 0.19000001 5117714
0.036527313 0.0019907183 0.19000001 5511702
0.037223827 0.0019802409 0.18900001 6365986
0.038112596 0.0019802409 0.18900001 5312267
0.039001361 0.0019802409 0.18900001 5506825
0.039890125 0.0019802409 0.18900001 7085346
0.04077889 0.0019802409 0.18900001 10505042
0.041667655 0.0019802409 0.18900001 10768984
0.04255642 0.0019802409 0.18900001 10834779
0.043445185 0.0019802409 0.18900001 10967135
0.04433395 0.0019802409 0.18900001 11954543
0.045222718 0.0019802409 0.18900001 15442342
0.046111483 0.0019802409 0.18900001 14129310
0.047000248 0.0019802409 0.18900001 5191997
-0.017973958 0.0027475669 0.18100001 2500138
-0.017312014 0.0027779269 0.18300001 2828074
-0.016451465 0.0027779269 0.18300001 3218207
-0.015590914 0.0027779269 0.18300001 13540764
-0.014810856 0.0027931067 0.18400002 14195355
-0.013945605 0.0027931067 0.18400002 12745602
-0.013080351 0.0027931067 0.18400002 13008004
-0.012215097 0.0027931067 0.18400002 13467015
-0.011411528 0.0028082863 0.185 12610936
-0.010541573 0.0028082863 0.185 12874362
-0.0096716173 0.0028082863 0.185 12611190
-0.0088016624 0.0028082863 0.185 13204356
-0.0079317065 0.0028082863 0.185 12810120
-0.0070617511 0.0028082863 0.185 10837357
-0.0061917952 0.0028082863 0.185 12549004
-0.0053218398 0.0028082863 0.185 14588074
-0.0044518844 0.0028082863 0.185 11495283
-0.0035819288 0.0028082863 0.185 11956338
-0.0027119736 0.0028082863 0.185 11035238
-0.0018420181 0.0028082863 0.185 10707304
-0.00097206264 0.0028082863 0.185 13208981
-0.0001021072 0.0028082863 0.185 10445415
0.00076784822 0.0028082863 0.185 10706537
0.0016466568 0.0028234664 0.186 15181746
0.0025213147 0.0028234664 0.186 13078169
0.0033959725 0.0028234664 0.186 10709621
0.0042706304 0.0028234664 0.186 11761021
0.0051452885 0.0028234664 0.186 11103859
0.0060199467 0.0028234664 0.186 10643824
0.0068946043 0.0028234664 0.186 8209996
0.0077692624 0.0028234664 0.186 6630703
0.0086439196 0.0028234664 0.186 6499117
0.0095185777 0.0028234664 0.186 6499630
0.010393236 0.0028234664 0.186 6040112
0.011267894 0.0028234664 0.186 9395042
0.012142551 0.0028234664 0.186 11367283
0.013017209 0.0028234664 0.186 11564148
0.013891867 0.0028234664 0.186 11300976
0.014766525 0.0028234664 0.186 11103597
0.015641183 0.0028234664 0.186 11037291
0.016515842 0.0028234664 0.186 10708326
0.017390499 0.0028234664 0.186 8997717
0.018265158 0.0028234664 0.186 10181741
0.019139815 0.0028234664 0.186 5511972
0.020014472 0.0028234664 0.186 5643808
0.020889131 0.0028234664 0.186 9327700
0.021763789 0.0028234664 0.186 5972257
0.022638446 0.0028234664 0.186 6761773
0.023386689 0.0028082863 0.185 8011840
0.024256645 0.0028082863 0.185 8999505
0.035633843 0.0028841863 0.19000001 4785673
0.036527313 0.0028841863 0.19000001 8731204
0.037223827 0.0028690062 0.18900001 9520972
0.038112596 0.0028690062 0.18900001 12546928
0.039001361 0.0028690062 0.18900001 13665150
0.039890125 0.0028690062 0.18900001 13204606
0.04077889 0.0028690062 0.18900001 11822957
0.041667655 0.0028690062 0.18900001 11296100
0.04255642 0.0028690062 0.18900001 13598083
0.043445185 0.0028690062 0.18900001 13467267
0.04433395 0.0028690062 0.18900001 14059919
0.045222718 0.0028690062 0.18900001 15968689
0.046111483 0.0028690062 0.18900001 13867683
0.047000248 0.0028690062 0.18900001 4863292
-0.017973958 0.0035987124 0.18100001 2169880
-0.017312014 0.0036384773 0.18300001 2696226
-0.016451465 0.0036384773 0.18300001 3086107
-0.015590914 0.0036384773 0.18300001 10711929
-0.014810856 0.0036583599 0.18400002 13933726
-0.013945605 0.0036583599 0.18400002 13602194
-0.013080351 0.0036583599 0.18400002 14324634
-0.012215097 0.0036583599 0.18400002 14717084
-0.011411528 0.003678242 0.185 16361137
-0.010541573 0.003678242 0.185 16624309
-0.0096716173 0.003678242 0.185 16098735
-0.0088016624 0.003678242 0.185 15046560
-0.0079317065 0.003678242 0.185 12219006
-0.0070617511 0.003678242 0.185 15509943
-0.0061917952 0.003678242 0.185 16766434
-0.0053218398 0.003678242 0.185 16766177
-0.0044518844 0.003678242 0.185 13470610
-0.0035819288 0.003678242 0.185 13337739
-0.0027119736 0.003678242 0.185 12943751
-0.0018420181 0.003678242 0.185 12287104
-0.00097206264 0.003678242 0.185 12682891
-0.0001021072 0.003678242 0.185 12682377
0.00077199872 0.0036981243 0.186 16762060
0.0016466568 0.0036981243 0.186 16764370
0.0025213147 0.0036981243 0.186 16765657
0.0033959725 0.0036981243 0.186 16764112
0.0042706304 0.0036981243 0.186 13866390
0.0051452885 0.0036981243 0.186 14853285
0.0060199467 0.0036981243 0.186 14260894
0.0068946043 0.0036981243 0.186 14327202
0.0077692624 0.0036981243 0.186 13932442
0.0086439196 0.0036981243 0.186 13735317
0.0095185777 0.0036981243 0.186 16696262
0.010393236 0.0036981243 0.186 16763857
0.011267894 0.0036981243 0.186 14656429
0.012142551 0.0036981243 0.186 12353410
0.013017209 0.0036981243 0.186 12944518
0.013891867 0.0036981243 0.186 13536655
0.014766525 0.0036981243 0.186 13207177
0.015641183 0.0036981243 0.186 12220795
0.016515842 0.0036981243 0.186 11563381
0.017390499 0.0036981243 0.186 15971777
0.018265158 0.0036981243 0.186 16766174
0.019139815 0.0036981243 0.186 14919601
0.020014472 0.0036981243 0.186 10510695
0.020889131 0.0036981243 0.186 10971244
0.021763789 0.0036981243 0.186 11233646
0.022638446 0.0036981243 0.186 11758707
0.023513105 0.0036981243 0.186 12350844
0.024387762 0.0036981243 0.186 13205637
0.025262421 0.0036981243 0.186 13536142
0.026277602 0.0037180067 0.18700001 10314089
0.027156962 0.0037180067 0.18700001 6367796
0.028036321 0.0037180067 0.18700001 4986909
0.02907031 0.0037378892 0.18800001 4656915
0.029954374 0.0037378892 0.18800001 4130569
0.030838437 0.0037378892 0.18800001 5907747
0.031722501 0.0037378892 0.18800001 4657678
0.032606564 0.0037378892 0.18800001 6894125
0.033668768 0.0037577716 0.18900001 7944246
0.034557533 0.0037577716 0.18900001 10837085
0.035446297 0.0037577716 0.18900001 10837089
0.036335062 0.0037577716 0.18900001 13862286
0.037223827 0.0037577716 0.18900001 12282741
0.038112596 0.0037577716 0.18900001 12019049
0.039001361 0.0037577716 0.18900001 11953256
0.039890125 0.0037577716 0.18900001 12480885
0.04077889 0.0037577716 0.18900001 13533573
0.041667655 0.0037577716 0.18900001 13598855
0.04255642 0.0037577716 0.18900001 15571873
0.043445185 0.0037577716 0.18900001 16164010
0.04433395 0.0037577716 0.18900001 16493747
0.045222718 0.0037577716 0.18900001 15443887
0.046111483 0.0037577716 0.18900001 11963027
0.047000248 0.0037577716 0.18900001 5326927
-0.017973958 0.0044498583 0.18100001 10985876
-0.017312014 0.004499028 0.18300001 10192765
-0.016451465 0.004499028 0.18300001 4402479
-0.015590914 0.004499028 0.18300001 4202020
-0.014810856 0.004523613 0.18400002 11303289
-0.013945605 0.004523613 0.18400002 14655906
-0.013080351 0.004523613 0.18400002 13864853
-0.012215097 0.004523613 0.18400002 13994644
-0.011411528 0.0045481971 0.185 15836076
-0.010541573 0.0045481971 0.185 15835563
-0.0096716173 0.0045481971 0.185 16033196
-0.0088016624 0.0045481971 0.185 15967916
-0.0079317065 0.0045481971 0.185 15639724
-0.0070617511 0.0045481971 0.185 13865116
-0.0061917952 0.0045481971 0.185 16766688
-0.0053218398 0.0045481971 0.185 16699864
-0.0044518844 0.0045481971 0.185 16765147
-0.0035819288 0.0045481971 0.185 14325406
-0.0027119736 0.0045481971 0.185 14391197
-0.0018420181 0.0045481971 0.185 13536401
-0.00097206264 0.0045481971 0.185 14261407
-0.00010265913 0.0045727822 0.186 13076620
0.00077199872 0.0045727822 0.186 16765401
0.0016466568 0.0045727822 0.186 16764627
0.0025213147 0.0045727822 0.186 16765655
0.0033959725 0.0045727822 0.186 13735065
0.0042706304 0.0045727822 0.186 14786209
0.0051452885 0.0045727822 0.186 14786209
0.0060199467 0.0045727822 0.186 14786207
0.0068946043 0.0045727822 0.186 14193818
0.0077692624 0.0045727822 0.186 13207436
0.0086439196 0.0045727822 0.186 12813448
0.0095185777 0.0045727822 0.186 16764116
0.010393236 0.0045727822 0.186 16566990
0.011267894 0.0045727822 0.186 16764633
0.012142551 0.0045727822 0.186 13799323
0.013017209 0.0045727822 0.186 13799321
0.013891867 0.0045727822 0.186 14325665
0.014766525 0.0045727822 0.186 14325404
0.015641183 0.0045727822 0.186 14194072
0.016515842 0.0045727822 0.186 13208719
0.017390499 0.0045727822 0.186 16764373
0.018265158 0.0045727822 0.186 16764632
0.019139815 0.0045727822 0.186 15444146
0.020014472 0.0045727822 0.186 14785957
0.020889131 0.0045727822 0.186 14785955
0.021763789 0.0045727822 0.186 13798290
0.022638446 0.0045727822 0.186 13994642
0.023639519 0.0045973673 0.18700001 15836846
0.024518881 0.0045973673 0.18700001 16298678
0.025398241 0.0045973673 0.18700001 16764624
0.026277602 0.0045973673 0.18700001 16770796
0.027156962 0.0045973673 0.18700001 16635354
0.028036321 0.0045973673 0.18700001 11433594
0.02907031 0.0046219518 0.18800001 10838375
0.029954374 0.0046219518 0.18800001 11496559
0.030838437 0.0046219518 0.18800001 11759731
0.031722501 0.0046219518 0.18800001 10971498
0.032606564 0.0046219518 0.18800001 9590358
0.033668768 0.0046465369 0.18900001 11300976
0.034557533 0.0046465369 0.18900001 15379629
0.035446297 0.0046465369 0.18900001 14853546
0.036335062 0.0046465369 0.18900001 16496321
0.037223827 0.0046465369 0.18900001 13730189
0.037910938 0.0046219518 0.18800001 14125197
0.038795002 0.0046219518 0.18800001 14125710
0.039679065 0.0046219518 0.18800001 14191505
0.040563129 0.0046219518 0.18800001 15244193
0.041447189 0.0046219518 0.18800001 14651541
0.042331252 0.0046219518 0.18800001 15900838
0.043215316 0.0046219518 0.18800001 16164010
0.044099379 0.0046219518 0.18800001 16362420
0.044983443 0.0046219518 0.18800001 14262956
0.045867506 0.0046219518 0.18800001 6637646
0.04675157 0.0046219518 0.18800001 5852240
-0.017312014 0.0053595784 0.18300001 2694943
-0.016451465 0.0053595784 0.18300001 3746347
-0.015590914 0.0053595784 0.18300001 9204338
-0.014891349 0.005418153 0.185 12227986
-0.014021395 0.005418153 0.185 11828863
-0.013151439 0.005418153 0.185 12813702
-0.012281483 0.005418153 0.185 15115174
-0.011411528 0.005418153 0.185 15113634
-0.010541573 0.005418153 0.185 15837100
-0.0096716173 0.005418153 0.185 15244193
-0.0088016624 0.005418153 0.185 14981791
-0.0079317065 0.005418153 0.185 15179427
-0.0070617511 0.005418153 0.185 14785439
-0.0061917952 0.005418153 0.185 16766688
-0.0053218398 0.005418153 0.185 16768997
-0.0044518844 0.005418153 0.185 16767973
-0.0035819288 0.005418153 0.185 14719392
-0.0027119736 0.005418153 0.185 14720929
-0.0018420181 0.005418153 0.185 13801370
-0.00097206264 0.005418153 0.185 13078930
-0.00010265913 0.0054474403 0.186 13932956
0.00077199872 0.0054474403 0.186 14588837
0.0016466568 0.0054474403 0.186 16037307
0.0025213147 0.0054474403 0.186 16765397
0.0033959725 0.0054474403 0.186 14325658
0.0042706304 0.0054474403 0.186 14588828
0.0051452885 0.0054474403 0.186 15245988
0.0060199467 0.0054474403 0.186 15312551
0.0068946043 0.0054474403 0.186 14918306
0.0077692624 0.0054474403 0.186 14786720
0.0086439196 0.0054474403 0.186 14457755
0.0095185777 0.0054474403 0.186 15445681
0.010393236 0.0054474403 0.186 16767454
0.011267894 0.0054474403 0.186 16769259
0.012142551 0.0054474403 0.186 14392232
0.013017209 0.0054474403 0.186 14457253
0.013891867 0.0054474403 0.186 13799321
0.014766525 0.0054474403 0.186 14193818
0.015641183 0.0054474403 0.186 14786722
0.016515842 0.0054474403 0.186 15248304
0.017390499 0.0054474403 0.186 16763345
0.018265158 0.0054474403 0.186 15971262
0.019139815 0.0054474403 0.186 12680840
0.020014472 0.0054474403 0.186 12614786
0.020889131 0.0054474403 0.186 12614270
0.021763789 0.0054474403 0.186 12481660
0.022638446 0.0054474403 0.186 13073288
0.023639519 0.0054767276 0.18700001 15047589
0.024518881 0.0054767276 0.18700001 16302276
0.025398241 0.0054767276 0.18700001 14532804
0.026418123 0.0055060149 0.18800001 16775931
0.027302187 0.0055060149 0.18800001 16776187
0.028186247 0.0055060149 0.18800001 16772592
0.02907031 0.0055060149 0.18800001 14456992
0.029954374 0.0055060149 0.18800001 13404302
0.030838437 0.0055060149 0.18800001 13141643
0.031722501 0.0055060149 0.18800001 13471378
0.032606564 0.0055060149 0.18800001 12288131
0.033490628 0.0055060149 0.18800001 14789298
0.034557533 0.0055353022 0.18900001 16170951
0.035258751 0.0055060149 0.18800001 16763088
0.036335062 0.0055353022 0.18900001 16765401
0.037223827 0.0055353022 0.18900001 16033709
0.037910938 0.0055060149 0.18800001 16229803
0.038795002 0.0055060149 0.18800001 16229803
0.039679065 0.0055060149 0.18800001 15770022
0.040563129 0.0055060149 0.18800001 15835815
0.041447189 0.0055060149 0.18800001 15572643
0.042331252 0.0055060149 0.18800001 16559536
0.043215316 0.0055060149 0.18800001 15705510
0.044099379 0.0055060149 0.18800001 15577008
0.044983443 0.0055060149 0.18800001 7949906
0.045867506 0.0055060149 0.18800001 5785928
0.04675157 0.0055060149 0.18800001 8484977
-0.014971843 0.006322098 0.186 2823962
-0.014097186 0.006322098 0.186 8609371
-0.013293616 0.0063560875 0.18700001 10579818
-0.012281483 0.006288108 0.185 11432562
-0.011411528 0.006288108 0.185 12483454
-0.010541573 0.006288108 0.185 13009798
-0.0096716173 0.006288108 0.185 13534600
-0.0088016624 0.006288108 0.185 14192275
-0.0079317065 0.006288108 0.185 14718874
-0.0070617511 0.006288108 0.185 15179423
-0.0061917952 0.006288108 0.185 14652824
-0.0053218398 0.006288108 0.185 14324634
-0.0044518844 0.006288108 0.185 14653599
-0.0035819288 0.006288108 0.185 14785957
-0.0027119736 0.006288108 0.185 14326687
-0.001851975 0.006322098 0.186 13933728
-0.00097731699 0.006322098 0.186 12684944
-0.00010265913 0.006322098 0.186 13340819
0.00077199872 0.006322098 0.186 13339022
0.0016466568 0.006322098 0.186 13996693
0.0025213147 0.006322098 0.186 13865107
0.0033959725 0.006322098 0.186 14128277
0.0042706304 0.006322098 0.186 13667726
0.0051452885 0.006322098 0.186 13470860
0.0060199467 0.006322098 0.186 13208458
0.0068946043 0.006322098 0.186 13602448
0.0077692624 0.006322098 0.186 13865618
0.0086903926 0.0063560875 0.18700001 14062997
0.009569753 0.0063560875 0.18700001 14193300
0.010449113 0.0063560875 0.18700001 13864083
0.011328474 0.0063560875 0.18700001 13534866
0.012207834 0.0063560875 0.18700001 14521761
0.013087194 0.0063560875 0.18700001 13470097
0.013966555 0.0063560875 0.18700001 14193820
0.014845916 0.0063560875 0.18700001 14457244
0.015725276 0.0063560875 0.18700001 14852002
0.016604636 0.0063560875 0.18700001 13141130
0.017483996 0.0063560875 0.18700001 12747405
0.018363358 0.0063560875 0.18700001 14852011
0.019242717 0.0063560875 0.18700001 13601429
0.020122077 0.0063560875 0.18700001 13207436
0.021001438 0.0063560875 0.18700001 13009544
0.0218808 0.0063560875 0.18700001 13074567
0.022760158 0.0063560875 0.18700001 13730189
0.023639519 0.0063560875 0.18700001 16626621
0.024518881 0.0063560875 0.18700001 16770540
0.025398241 0.0063560875 0.18700001 15389650
0.026418123 0.0063900775 0.18800001 16776955
0.027302187 0.0063900775 0.18800001 16776443
0.028186247 0.0063900775 0.18800001 16770803
0.02907031 0.0063900775 0.18800001 14129573
0.029954374 0.0063900775 0.18800001 15312047
0.030838437 0.0063900775 0.18800001 14522015
0.031722501 0.0063900775 0.18800001 14325406
0.032606564 0.0063900775 0.18800001 13734811
0.033490628 0.0063900775 0.18800001 16762836
0.034374688 0.0063900775 0.18800001 16697813
0.035258751 0.0063900775 0.18800001 16764376
0.036142815 0.0063900775 0.18800001 16765918
0.037026878 0.0063900775 0.18800001 14849951
0.037910938 0.0063900775 0.18800001 15966631
0.038795002 0.0063900775 0.18800001 16098217
0.039679065 0.0063900775 0.18800001 15440287
0.040563129 0.0063900775 0.18800001 15835815
0.041447189 0.0063900775 0.18800001 16626614
0.042331252 0.0063900775 0.18800001 16365752
0.043215316 0.0063900775 0.18800001 12553356
0.044099379 0.0063900775 0.18800001 9791849
0.044983443 0.0063900775 0.18800001 8084570
0.045867506 0.0063900775 0.18800001 5129282
0.04675157 0.0063900775 0.18800001 3158060
0.04738225 0.0063560875 0.18700001 2894888
-0.01610209 0.0073128329 0.18900001 2764080
-0.01513283 0.0072741406 0.18800001 3222832
-0.014248769 0.0072741406 0.18800001 6638159
-0.013364706 0.0072741406 0.18800001 9003362
-0.012414256 0.0072354483 0.18700001 10580593
-0.011473212 0.0071967561 0.186 12354694
-0.010598554 0.0071967561 0.186 11958906
-0.0097238962 0.0071967561 0.186 12287356
-0.008849239 0.0071967561 0.186 12352379
-0.0079745799 0.0071967561 0.186 12681344
-0.0070999227 0.0071967561 0.186 12944003
-0.0062252646 0.0071967561 0.186 13009796
-0.0053506065 0.0071967561 0.186 13667726
-0.0044759484 0.0071967561 0.186 13865620
-0.0036012908 0.0071967561 0.186 14260378
-0.0027266329 0.0071967561 0.186 13801372
-0.001851975 0.0071967561 0.186 12882582
-0.00097731699 0.0071967561 0.186 11961480
-0.00010265913 0.0071967561 0.186 12354696
0.00077199872 0.0071967561 0.186 12813961
0.0016466568 0.0071967561 0.186 13011340
0.0025213147 0.0071967561 0.186 13406098
0.0034142304 0.0072354483 0.18700001 13340559
0.0042935908 0.0072354483 0.18700001 13274512
0.0051729511 0.0072354483 0.18700001 12484996
0.006052312 0.0072354483 0.18700001 12747655
0.0069316719 0.0072354483 0.18700001 12813448
0.0078110327 0.0072354483 0.18700001 12681862
0.0086903926 0.0072354483 0.18700001 13536655
0.009569753 0.0072354483 0.18700001 13667728
0.010449113 0.0072354483 0.18700001 13337993
0.011328474 0.0072354483 0.18700001 13206407
0.012207834 0.0072354483 0.18700001 13601165
0.013087194 0.0072354483 0.18700001 13601165
0.013966555 0.0072354483 0.18700001 13272200
0.014845916 0.0072354483 0.18700001 13009028
0.015725276 0.0072354483 0.18700001 12351098
0.016604636 0.0072354483 0.18700001 12548477
0.017483996 0.0072354483 0.18700001 12812678
0.018363358 0.0072354483 0.18700001 13273999
0.019242717 0.0072354483 0.18700001 13471378
0.020122077 0.0072354483 0.18700001 13340046
0.021001438 0.0072354483 0.18700001 13208460
0.0218808 0.0072354483 0.18700001 13272970
0.022760158 0.0072354483 0.18700001 13534602
0.023639519 0.0072354483 0.18700001 13862286
0.024518881 0.0072354483 0.18700001 14784417
0.02553406 0.0072741406 0.18800001 16768224
0.026418123 0.0072741406 0.18800001 16775413
0.027302187 0.0072741406 0.18800001 16774903
0.028186247 0.0072741406 0.18800001 13869490
0.02907031 0.0072741406 0.18800001 15905481
0.029954374 0.0072741406 0.18800001 14918324
0.030838437 0.0072741406 0.18800001 16561348
0.031722501 0.0072741406 0.18800001 14258593
0.032606564 0.0072741406 0.18800001 14129058
0.033490628 0.0072741406 0.18800001 16762064
0.034374688 0.0072741406 0.18800001 16764119
0.035446297 0.0073128329 0.18900001 16765402
0.036142815 0.0072741406 0.18800001 16766174
0.037026878 0.0072741406 0.18800001 14520986
0.037910938 0.0072741406 0.18800001 15506850
0.038795002 0.0072741406 0.18800001 15572643
0.039679065 0.0072741406 0.18800001 14718619
0.040563129 0.0072741406 0.18800001 12746626
0.041447189 0.0072741406 0.18800001 12617866
0.042331252 0.0072741406 0.18800001 8871010
0.043215316 0.0072741406 0.18800001 3612965
0.044099379 0.0072741406 0.18800001 3550765
0.044983443 0.0072741406 0.18800001 3157807
0.045867506 0.0072741406 0.18800001 3289650
0.04675157 0.0072741406 0.18800001 3158834
0.04738225 0.0072354483 0.18700001 2896432
-0.016187288 0.0082449932 0.19000001 2172713
-0.015293819 0.0082449932 0.19000001 2631724
-0.014627726 0.0083751762 0.193 4666936
-0.013506884 0.0082449932 0.19000001 7755607
-0.012480643 0.0081582032 0.18800001 8279893
-0.01159658 0.0081582032 0.18800001 10646386
-0.010712517 0.0081582032 0.18800001 11040630
-0.009776175 0.0081148082 0.18700001 11631225
-0.008849239 0.0080714133 0.186 12748936
-0.0079745799 0.0080714133 0.186 12880522
-0.0070999227 0.0080714133 0.186 12485764
-0.0062252646 0.0080714133 0.186 12353664
-0.0053506065 0.0080714133 0.186 12814215
-0.0044759484 0.0080714133 0.186 12880008
-0.0036206525 0.0081148082 0.18700001 12880268
-0.0027412924 0.0081148082 0.18700001 12618381
-0.0018619319 0.0081148082 0.18700001 11239043
-0.00098257139 0.0081148082 0.18700001 11172478
-0.00010321107 0.0081148082 0.18700001 11829635
0.00077614927 0.0081148082 0.18700001 12486280
0.0016555098 0.0081148082 0.18700001 12420487
0.0025348703 0.0081148082 0.18700001 12881551
0.0034142304 0.0081148082 0.18700001 11368830
0.0043165511 0.0081582032 0.18800001 11631232
0.0052006142 0.0081582032 0.18800001 11894658
0.0060846773 0.0081582032 0.18800001 12354694
0.0069687399 0.0081582032 0.18800001 12485510
0.007852803 0.0081582032 0.18800001 12484996
0.0087368656 0.0081582032 0.18800001 12945547
0.0096209282 0.0081582032 0.18800001 13076620
0.010504992 0.0081582032 0.18800001 13076874
0.011389053 0.0081582032 0.18800001 13207690
0.012273116 0.0081582032 0.18800001 13076104
0.01315718 0.0081582032 0.18800001 12681346
0.014041243 0.0081582032 0.18800001 12812932
0.014925306 0.0081582032 0.18800001 12417661
0.015809368 0.0081582032 0.18800001 12417661
0.016693432 0.0081582032 0.18800001 12220280
0.017577494 0.0081582032 0.18800001 12220795
0.018461557 0.0081582032 0.18800001 12484483
0.019345619 0.0081582032 0.18800001 12813448
0.020229682 0.0081582032 0.18800001 12748422
0.021113746 0.0081582032 0.18800001 13340559
0.021997809 0.0081582032 0.18800001 13405069
0.022881871 0.0081582032 0.18800001 13733521
0.023765935 0.0081582032 0.18800001 13863567
0.024649998 0.0081582032 0.18800001 14455447
0.02553406 0.0081582032 0.18800001 14850208
0.026418123 0.0081582032 0.18800001 14523296
0.027302187 0.0081582032 0.18800001 16761802
0.028186247 0.0081582032 0.18800001 14129058
0.02907031 0.0081582032 0.18800001 13800868
0.029954374 0.0081582032 0.18800001 16771834
0.030838437 0.0081582032 0.18800001 15179695
0.031722501 0.0081582032 0.18800001 14784683
0.032606564 0.0081582032 0.18800001 16432074
0.033490628 0.0081582032 0.18800001 13340571
0.034557533 0.0082015982 0.18900001 12879504
0.035446297 0.0082015982 0.18900001 12682125
0.036142815 0.0081582032 0.18800001 14260126
0.037026878 0.0081582032 0.18800001 12483200
0.037910938 0.0081582032 0.18800001 13732497
0.038795002 0.0081582032 0.18800001 12878212
0.039679065 0.0081582032 0.18800001 12420741
0.040563129 0.0081582032 0.18800001 12029840
0.041447189 0.0081582032 0.18800001 5979976
0.042331252 0.0081582032 0.18800001 3614508
0.043215316 0.0081582032 0.18800001 3288623
0.044099379 0.0081582032 0.18800001 2894635
0.044983443 0.0081582032 0.18800001 2697513
0.045867506 0.0081582032 0.18800001 2566697
0.04675157 0.0081582032 0.18800001 2764846
0.04738225 0.0081148082 0.18700001 2699053
-0.015857276 0.0094751408 0.19700001 2631722
-0.0148551 0.0094270436 0.19600001 4075312
-0.01372015 0.0092827519 0.193 6243651
-0.012547029 0.009090364 0.18900001 8807264
-0.01159658 0.0090422668 0.18800001 9989739
-0.010712517 0.0090422668 0.18800001 10581363
-0.0098284548 0.0090422668 0.18800001 11369082
-0.0088968156 0.0089941695 0.18700001 12156799
-0.0080174543 0.0089941695 0.18700001 13143694
-0.0071380944 0.0089941695 0.18700001 13143694
-0.0062587336 0.0089941695 0.18700001 13143694
-0.0053793732 0.0089941695 0.18700001 13012108
-0.0045000128 0.0089941695 0.18700001 13012108
-0.0036400142 0.0090422668 0.18800001 12683913
-0.0027559516 0.0090422668 0.18800001 12028559
-0.0018718888 0.0090422668 0.18800001 10844796
-0.0009878258 0.0090422668 0.18800001 11634053
-0.000103763 0.0090422668 0.18800001 11566463
0.00078029983 0.0090422668 0.18800001 11500668
0.0016643627 0.0090422668 0.18800001 12092035
0.0025484257 0.0090422668 0.18800001 12027014
0.0034324883 0.0090422668 0.18800001 12026760
0.0043165511 0.0090422668 0.18800001 11697797
0.0052282768 0.009090364 0.18900001 11959938
0.0061170426 0.009090364 0.18900001 12617868
0.0070058075 0.009090364 0.18900001 12814477
0.0078945737 0.009090364 0.18900001 12880268
0.0087833386 0.009090364 0.18900001 12814475
0.0096721034 0.009090364 0.18900001 12616582
0.010560869 0.009090364 0.18900001 12813961
0.011449634 0.009090364 0.18900001 13011340
0.012338399 0.009090364 0.18900001 13405585
0.013227165 0.009090364 0.18900001 12089979
0.014115931 0.009090364 0.18900001 12024186
0.015004696 0.009090364 0.18900001 12615553
0.015893461 0.009090364 0.18900001 12483967
0.016782226 0.009090364 0.18900001 12747909
0.017670993 0.009090364 0.18900001 12682629
0.018559758 0.009090364 0.18900001 12551557
0.019448522 0.009090364 0.18900001 12156545
0.020337287 0.009090364 0.18900001 12353924
0.021226054 0.009090364 0.18900001 12419203
0.022114819 0.009090364 0.18900001 12682116
0.023003584 0.009090364 0.18900001 12944518
0.023892349 0.009090364 0.18900001 13272970
0.024781115 0.009090364 0.18900001 13404556
0.02566988 0.009090364 0.18900001 13074821
0.026558645 0.009090364 0.18900001 14128538
0.027447412 0.009090364 0.18900001 12681092
0.028336175 0.009090364 0.18900001 14325917
0.02922494 0.009090364 0.18900001 13208208
0.030113706 0.009090364 0.18900001 13075852
0.031002471 0.009090364 0.18900001 13206155
0.031891238 0.009090364 0.18900001 12088444
0.032780003 0.009090364 0.18900001 11826814
0.033668768 0.009090364 0.18900001 11893121
0.034557533 0.009090364 0.18900001 12485512
0.035446297 0.009090364 0.18900001 12682891
0.036142815 0.0090422668 0.18800001 12484998
0.037026878 0.0090422668 0.18800001 11892861
0.037910938 0.0090422668 0.18800001 11893375
0.038795002 0.0090422668 0.18800001 12290699
0.039890125 0.009090364 0.18900001 10319224
-0.016098756 0.010559924 0.2 3158836
-0.015158265 0.010559924 0.2 3354156
-0.01435995 0.010665524 0.20200001 5981249
-0.013011734 0.010348726 0.19600001 6900550
-0.01159658 0.0099263294 0.18800001 8609371
-0.010712517 0.0099263294 0.18800001 10910841
-0.0098284548 0.0099263294 0.18800001 10976121
-0.0089443922 0.0099263294 0.18800001 11369082
-0.0080603287 0.0099263294 0.18800001 11894656
-0.0071762661 0.0099263294 0.18800001 12682889
-0.006292203 0.0099263294 0.18800001 13341073
-0.0054081399 0.0099263294 0.18800001 13341843
-0.0045240773 0.0099263294 0.18800001 13079184
-0.0036593762 0.0099791288 0.18900001 12684944
-0.0027706109 0.0099791288 0.18900001 10054767
-0.0018818455 0.0099791288 0.18900001 11041664
-0.0009930802 0.0099791288 0.18900001 11567490
-0.00010431492 0.0099791288 0.18900001 11434877
0.00078445039 0.0099791288 0.18900001 11499898
0.0016732158 0.0099791288 0.18900001 11565691
0.0025619811 0.0099791288 0.18900001 11633029
0.0034507464 0.0099791288 0.18900001 11435136
0.0043395115 0.0099791288 0.18900001 12289416
0.0052282768 0.0099791288 0.18900001 12354696
0.0061170426 0.0099791288 0.18900001 12420489
0.0070058075 0.0099791288 0.18900001 12420489
0.0079363436 0.010031928 0.19000001 12552075
0.0088298116 0.010031928 0.19000001 12881038
0.0097232787 0.010031928 0.19000001 12748682
0.010616747 0.010031928 0.19000001 11630201
0.011510214 0.010031928 0.19000001 12552075
0.012403682 0.010031928 0.19000001 12881038
0.01329715 0.010031928 0.19000001 12420487
0.014190618 0.010031928 0.19000001 12222338
0.015084086 0.010031928 0.19000001 12024445
0.015977552 0.010031928 0.19000001 12748168
0.016871022 0.010031928 0.19000001 12748682
0.01776449 0.010031928 0.19000001 12551303
0.018657958 0.010031928 0.19000001 12091522
0.019551424 0.010031928 0.19000001 12683661
0.020444892 0.010031928 0.19000001 12485258
0.02133836 0.010031928 0.19000001 12090754
0.022231828 0.010031928 0.19000001 12748168
0.023125295 0.010031928 0.19000001 12748168
0.024018764 0.010031928 0.19000001 12287104
0.024912233 0.010031928 0.19000001 11958139
0.025805701 0.010031928 0.19000001 11958139
0.026699169 0.010031928 0.19000001 11629174
0.027592637 0.010031928 0.19000001 12352897
0.028336175 0.0099791288 0.18900001 12023932
0.02922494 0.0099791288 0.18900001 11629174
0.030113706 0.0099791288 0.18900001 11892346
0.031002471 0.0099791288 0.18900001 12615301
0.031891238 0.0099791288 0.18900001 12418690
0.032780003 0.0099791288 0.18900001 12156545
0.033668768 0.0099791288 0.18900001 12090752
0.034557533 0.0099791288 0.18900001 12156545
0.035446297 0.0099791288 0.18900001 12617098
0.036335062 0.0099791288 0.18900001 12091524
0.037026878 0.0099263294 0.18800001 11698049
0.037910938 0.0099263294 0.18800001 11633799
0.039001361 0.0099791288 0.18900001 8479080
-0.016340237 0.011672923 0.20300001 4145731
-0.015461431 0.011730426 0.20400001 4539719
-0.01492866 0.012075438 0.21000001 5654596
-0.01400753 0.01213294 0.21100001 6441282
-0.010712517 0.010810392 0.18800001 8938336
-0.0098284548 0.010810392 0.18800001 10055534
-0.0089443922 0.010810392 0.18800001 11304316
-0.008103203 0.010867895 0.18900001 11633281
-0.0072144377 0.010867895 0.18900001 11698047
-0.0063256719 0.010867895 0.18900001 12486795
-0.0054369066 0.010867895 0.18900001 12486795
-0.0045481413 0.010867895 0.18900001 12421770
-0.0036787379 0.010925396 0.19000001 12027012
-0.0027852703 0.010925396 0.19000001 11303291
-0.0018918024 0.010925396 0.19000001 11105912
-0.00099833461 0.010925396 0.19000001 11039349
-0.00010486686 0.010925396 0.19000001 10973556
0.00078860088 0.010925396 0.19000001 11368312
0.0016732158 0.010867895 0.18900001 11172216
0.0025619811 0.010867895 0.18900001 11699846
0.0034690043 0.010925396 0.19000001 11829633
0.0043624719 0.010925396 0.19000001 12748682
0.0052559399 0.010925396 0.19000001 12682889
0.0061494079 0.010925396 0.19000001 12880268
0.0070428755 0.010925396 0.19000001 13011854
0.0079781143 0.010982899 0.19100001 12552075
0.0088762837 0.010982899 0.19100001 12354442
0.0097744539 0.010982899 0.19100001 11301754
0.010672624 0.010982899 0.19100001 11235445
0.011570795 0.010982899 0.19100001 11762559
0.012468965 0.010982899 0.19100001 12420489
0.013367135 0.010982899 0.19100001 12617868
0.014265305 0.010982899 0.19100001 12880786
0.015163477 0.010982899 0.19100001 11433340
0.016061645 0.010982899 0.19100001 11433340
0.016959816 0.010982899 0.19100001 11762559
0.017857987 0.010982899 0.19100001 12354696
0.018756157 0.010982899 0.19100001 12354696
0.019654326 0.010982899 0.19100001 12025477
0.020552497 0.010982899 0.19100001 12025477
0.021450669 0.010982899 0.19100001 11762305
0.022348838 0.010982899 0.19100001 11959938
0.023247007 0.010982899 0.19100001 12485512
0.024145178 0.010982899 0.19100001 12551305
0.02504335 0.010982899 0.19100001 12090754
0.025941519 0.010982899 0.19100001 11827582
0.02683969 0.010982899 0.19100001 12024959
0.027737861 0.010982899 0.19100001 12156031
0.028486101 0.010925396 0.19000001 11827066
0.029379569 0.010925396 0.19000001 11498101
0.030273039 0.010925396 0.19000001 11827068
0.031166507 0.010925396 0.19000001 12287619
0.032059975 0.010925396 0.19000001 12353924
0.032953441 0.010925396 0.19000001 11893373
0.033846911 0.010925396 0.19000001 11301236
0.034557533 0.010867895 0.18900001 11368314
0.035446297 0.010867895 0.18900001 11434877
0.036335062 0.010867895 0.18900001 11698822
0.037026878 0.010810392 0.18800001 11305349
0.038112596 0.010867895 0.18900001 5387579
-0.016143553 0.013249569 0.21300001 4607050
-0.015141928 0.013249569 0.21300001 4800832
-0.01420669 0.013311774 0.21400002 6047556
-0.013076995 0.013187364 0.21200001 6506562
-0.0089443922 0.011694455 0.18800001 9267301
-0.0081460774 0.011818864 0.19000001 11502978
-0.0072526094 0.011818864 0.19000001 11568771
-0.0063591413 0.011818864 0.19000001 11370109
-0.0054656737 0.011818864 0.19000001 11698047
-0.0045722057 0.011818864 0.19000001 11698047
-0.0036980996 0.011881068 0.19100001 11829633
-0.0027999296 0.011881068 0.19100001 11763840
-0.0019017593 0.011881068 0.19100001 11894143
-0.001003589 0.011881068 0.19100001 11434105
-0.00010486686 0.011818864 0.19000001 12157828
0.00078860088 0.011818864 0.19000001 13080213
0.0016820688 0.011818864 0.19000001 12555155
0.0025755367 0.011818864 0.19000001 12159627
0.0034872622 0.011881068 0.19100001 12553356
0.0043854327 0.011881068 0.19100001 12749452
0.005283603 0.011881068 0.19100001 12682375
0.0061817733 0.011881068 0.19100001 12353410
0.0070799435 0.011881068 0.19100001 12616582
0.0080198841 0.011943272 0.192 11959938
0.0089227557 0.011943272 0.192 11564926
0.0098256283 0.011943272 0.192 11301754
0.010728502 0.011943272 0.192 11236215
0.011631373 0.011943272 0.192 11564410
0.012534246 0.011943272 0.192 11893375
0.013437119 0.011943272 0.192 12749454
0.014339992 0.011943272 0.192 11697025
0.015242865 0.011943272 0.192 11170168
0.016145736 0.011943272 0.192 11170422
0.01704861 0.011943272 0.192 11630973
0.017951483 0.011943272 0.192 11630973
0.018854355 0.011943272 0.192 11236215
0.019757228 0.011943272 0.192 11499387
0.020660101 0.011943272 0.192 11301754
0.021562973 0.011943272 0.192 11499900
0.022465847 0.011943272 0.192 11828865
0.023368718 0.011943272 0.192 12354696
0.024271591 0.011943272 0.192 12090754
0.025174465 0.011943272 0.192 12288133
0.026077338 0.011943272 0.192 12353926
0.02698021 0.011943272 0.192 12223108
0.027883084 0.011943272 0.192 11894143
0.028636029 0.011881068 0.19100001 11499385
0.0295342 0.011881068 0.19100001 11104627
0.03043237 0.011881068 0.19100001 11104627
0.031330541 0.011881068 0.19100001 11630973
0.032228712 0.011881068 0.19100001 12289416
0.033126883 0.011881068 0.19100001 11894658
0.033846911 0.011818864 0.19000001 10908533
0.034740377 0.011818864 0.19000001 10843253
0.035633843 0.011818864 0.19000001 10515318
0.036335062 0.011756659 0.18900001 8675174
0.037420779 0.011818864 0.19000001 3152414
-0.016295135 0.014385006 0.215 3225399
-0.015284104 0.014385006 0.215 3880500
-0.014339462 0.014451914 0.21600001 5851462
-0.013447098 0.014585728 0.21800001 6244933
-0.0081460774 0.012712331 0.19000001 9333608
-0.007290781 0.012779239 0.19100001 10977919
-0.0063926107 0.012779239 0.19100001 11174015
-0.0054944404 0.012779239 0.19100001 11370881
-0.0045962702 0.012779239 0.19100001 11699844
-0.0037174614 0.012846145 0.192 11830660
-0.0028145888 0.012846145 0.192 11961732
-0.0019017593 0.012779239 0.19100001 11698047
-0.0010088434 0.012846145 0.192 11434875
-0.00010541879 0.012779239 0.19100001 11895426
0.00079275144 0.012779239 0.19100001 12094602
0.0016909218 0.012779239 0.19100001 12423828
0.0025890921 0.012779239 0.19100001 12028557
0.0035055198 0.012846145 0.192 12159373
0.0044083926 0.012846145 0.192 12158600
0.0053112651 0.012846145 0.192 12355209
0.0062141381 0.012846145 0.192 12025731
0.0071170107 0.012846145 0.192 12156547
0.0080616539 0.012913052 0.193 12551305
0.0089692287 0.012913052 0.193 11565180
0.0098768035 0.012913052 0.193 11761789
0.010784379 0.012913052 0.193 11761789
0.011691954 0.012913052 0.193 11564408
0.012599529 0.012913052 0.193 11695994
0.013507104 0.012913052 0.193 12025731
0.01441468 0.012913052 0.193 12091524
0.015322255 0.012913052 0.193 11433340
0.016229829 0.012913052 0.193 11104375
0.017137405 0.012913052 0.193 11104629
0.01804498 0.012913052 0.193 11170422
0.018952556 0.012913052 0.193 11105142
0.01986013 0.012913052 0.193 11237498
0.020767706 0.012913052 0.193 11237498
0.021675281 0.012913052 0.193 11500670
0.022582857 0.012913052 0.193 11434623
0.023490431 0.012913052 0.193 12026244
0.024398006 0.012913052 0.193 12289414
0.025305582 0.012913052 0.193 12552073
0.026213158 0.012913052 0.193 12552073
0.027120734 0.012913052 0.193 12223110
0.028028307 0.012913052 0.193 11236215
0.028785953 0.012846145 0.192 11170935
0.029688828 0.012846145 0.192 11434877
0.0305917 0.012846145 0.192 11434877
0.031494573 0.012846145 0.192 11237498
0.032397445 0.012846145 0.192 11303291
0.033300318 0.012846145 0.192 10974585
0.033846911 0.012712331 0.19000001 10382962
0.034740377 0.012712331 0.19000001 9989487
0.035633843 0.012712331 0.19000001 7425877
-0.016370926 0.015467646 0.21600001 2764076
-0.015426283 0.015539255 0.21700001 3158060
-0.014405848 0.015539255 0.21700001 5852491
-0.013447098 0.015610864 0.21800001 5916483
-0.0073289522 0.013749017 0.192 9465194
-0.0064260792 0.013749017 0.192 10517368
-0.0055232067 0.013749017 0.192 10648954
-0.0046203341 0.013749017 0.192 11305601
-0.0037174614 0.013749017 0.192 11502467
-0.0028145888 0.013749017 0.192 11370111
-0.0019117161 0.013749017 0.192 11962248
-0.0010088434 0.013749017 0.192 12159111
-0.00010597071 0.013749017 0.192 12093318
0.00079690194 0.013749017 0.192 11634566
0.0016997746 0.013749017 0.192 11832463
0.0026026473 0.013749017 0.192 11436420
0.0035237779 0.013820628 0.193 10843767
0.004431353 0.013820628 0.193 11632769
0.0053389282 0.013820628 0.193 11369597
0.0062465039 0.013820628 0.193 11303291
0.0071540787 0.013820628 0.193 11236728
0.0081034247 0.013892237 0.19400001 11302008
0.0090157017 0.013892237 0.19400001 12157317
0.0099279787 0.013892237 0.19400001 12748684
0.010840257 0.013892237 0.19400001 12024959
0.011752534 0.013892237 0.19400001 12024959
0.012664812 0.013892237 0.19400001 11302008
0.01357709 0.013892237 0.19400001 11170168
0.014489368 0.013892237 0.19400001 11762559
0.015401646 0.013892237 0.19400001 12025731
0.016313922 0.013892237 0.19400001 11630973
0.017226201 0.013892237 0.19400001 11433594
0.018138478 0.013892237 0.19400001 11434105
0.019050756 0.013892237 0.19400001 12355207
0.019963032 0.013892237 0.19400001 12290184
0.020875311 0.013892237 0.19400001 11763840
0.021787588 0.013892237 0.19400001 11369597
0.022699866 0.013892237 0.19400001 10974839
0.023612143 0.013892237 0.19400001 11303037
0.02452442 0.013892237 0.19400001 12091783
0.025436699 0.013892237 0.19400001 12421002
0.026348976 0.013892237 0.19400001 12157830
0.027261255 0.013892237 0.19400001 11960451
0.028173532 0.013892237 0.19400001 11697795
0.028935881 0.013820628 0.193 11566463
0.029843457 0.013820628 0.193 11237498
0.030751033 0.013820628 0.193 11040119
0.031658608 0.013820628 0.193 10974839
0.032397445 0.013749017 0.192 10646388
0.033300318 0.013749017 0.192 9725802
-0.01556846 0.016712314 0.21900001 2566180
-0.014538622 0.016712314 0.21900001 2301215
-0.013508783 0.016712314 0.21900001 5522758
-0.0073289522 0.014651891 0.192 9862264
-0.0064260792 0.014651891 0.192 10650497
-0.0055519734 0.014728203 0.193 10453118
-0.0046443981 0.014728203 0.193 11043972
-0.0037368231 0.014728203 0.193 11306630
-0.0028292481 0.014728203 0.193 10976382
-0.001921673 0.014728203 0.193 10844796
-0.0010140978 0.014728203 0.193 11502213
-0.00010652265 0.014728203 0.193 11370627
0.00080105243 0.014728203 0.193 11569806
0.0017086277 0.014728203 0.193 10450558
0.0026162029 0.014728203 0.193 10975871
0.0035237779 0.014728203 0.193 11040632
0.0044543133 0.014804515 0.19400001 10777460
0.0053665913 0.014804515 0.19400001 10909046
0.0062788692 0.014804515 0.19400001 10777460
0.0071911463 0.014804515 0.19400001 11698049
0.0081451945 0.014880827 0.19500001 11499900
0.0090621747 0.014880827 0.19500001 11499900
0.009979154 0.014880827 0.19500001 11499387
0.010896134 0.014880827 0.19500001 12157317
0.011813114 0.014880827 0.19500001 12025731
0.012730094 0.014880827 0.19500001 11631486
0.013647075 0.014880827 0.19500001 11499900
0.014564055 0.014880827 0.19500001 11565693
0.015481035 0.014880827 0.19500001 11960451
0.016398015 0.014880827 0.19500001 11960451
0.017314995 0.014880827 0.19500001 12157830
0.018231975 0.014880827 0.19500001 12092037
0.019148955 0.014880827 0.19500001 12092037
0.020065935 0.014880827 0.19500001 11303291
0.020982916 0.014880827 0.19500001 11105912
0.021899896 0.014880827 0.19500001 11237498
0.022816876 0.014880827 0.19500001 11303804
0.023733856 0.014880827 0.19500001 11435388
0.024650836 0.014880827 0.19500001 11501181
0.025567817 0.014880827 0.19500001 11172216
0.026484797 0.014880827 0.19500001 11435388
0.027401777 0.014880827 0.19500001 11369597
0.028318757 0.014880827 0.19500001 11501183
0.029085808 0.014804515 0.19400001 11303804
0.029998086 0.014804515 0.19400001 10777206
0.030751033 0.014728203 0.193 9594216
0.031658608 0.014728203 0.193 9529708
-0.0073289522 0.015554764 0.192 9467510
-0.0064260792 0.015554764 0.192 9730680
-0.0055519734 0.015635779 0.193 10454401
-0.0046443981 0.015635779 0.193 10847876
-0.0037561848 0.015716793 0.19400001 10715777
-0.0028439073 0.015716793 0.19400001 11109251
-0.0019316298 0.015716793 0.19400001 10450808
-0.0010193522 0.015716793 0.19400001 10319222
-0.00010652265 0.015635779 0.193 10451325
0.00080105243 0.015635779 0.193 11110034
0.0017086277 0.015635779 0.193 10583173
0.0026162029 0.015635779 0.193 10582398
0.0035420358 0.015716793 0.19400001 10384247
0.0044543133 0.015716793 0.19400001 10382962
0.0053942539 0.015797807 0.19500001 11106685
0.0063112346 0.015797807 0.19500001 11238271
0.0072652819 0.015878823 0.19600001 11500929
0.0081869652 0.015878823 0.19600001 11500929
0.0091086468 0.015878823 0.19600001 11040632
0.010030329 0.015878823 0.19600001 11105912
0.010952013 0.015878823 0.19600001 11368314
0.011934275 0.015959837 0.19700001 11039349
0.01286066 0.015959837 0.19700001 10907763
0.013787045 0.015959837 0.19700001 11565693
0.01471343 0.015959837 0.19700001 11697279
