# .PCD v0.7 - Point Cloud Data file format
VERSION 0.7
FIELDS x y z rgb
SIZE 4 4 4 4
TYPE F F F U
COUNT 1 1 1 1
WIDTH 1092
HEIGHT 1
VIEWPOINT 0 0 0 1 0 0 0
POINTS 1092
DATA ascii
0.022686046 0.024913983 0.20200001 13339276
0.023635944 0.024913983 0.20200001 13734550
0.024585839 0.024913983 0.20200001 16773621
0.025535738 0.024913983 0.20200001 16774902
0.026485635 0.024913983 0.20200001 16370125
0.027435534 0.024913983 0.20200001 11168623
0.028385431 0.024913983 0.20200001 10904420
0.029335327 0.024913983 0.20200001 9522765
0.030285222 0.024913983 0.20200001 11168877
0.031235121 0.024913983 0.20200001 12024959
0.032185018 0.024913983 0.20200001 10052454
0.033134915 0.024913983 0.20200001 10710134
0.034084816 0.024913983 0.20200001 16368330
0.035034712 0.024913983 0.20200001 16762573
0.035984609 0.024913983 0.20200001 16765661
0.036934502 0.024913983 0.20200001 14851498
0.037884403 0.024913983 0.20200001 15244966
0.0388343 0.024913983 0.20200001 15704744
0.039784197 0.024913983 0.20200001 15836328
0.040734094 0.024913983 0.20200001 15507363
0.041683994 0.024913983 0.20200001 15902121
0.042633891 0.024913983 0.20200001 16757944
0.043583788 0.024913983 0.20200001 15837355
0.044533681 0.024913983 0.20200001 12354694
0.045483582 0.024913983 0.20200001 6113862
0.046433479 0.024913983 0.20200001 9735305
-0.017294837 0.025991919 0.20300001 5261132
-0.016259743 0.02586388 0.20200001 12490393
-0.015309848 0.02586388 0.20200001 14457244
-0.01435995 0.02586388 0.20200001 13533575
-0.013410052 0.02586388 0.20200001 13664648
-0.012460155 0.02586388 0.20200001 13860233
-0.011510259 0.02586388 0.20200001 13860228
-0.010560361 0.02586388 0.20200001 13597056
-0.0096104639 0.02586388 0.20200001 14847380
-0.0086605661 0.02586388 0.20200001 12743546
-0.0077106687 0.02586388 0.20200001 11560301
-0.0067607709 0.02586388 0.20200001 16762060
-0.0058108736 0.02586388 0.20200001 16761805
-0.0048609762 0.02586388 0.20200001 11496307
-0.0039110789 0.02586388 0.20200001 12220282
-0.002961182 0.02586388 0.20200001 12089725
-0.0020112847 0.02586388 0.20200001 11698308
-0.0010613874 0.02586388 0.20200001 12093068
-0.00011149003 0.02586388 0.20200001 12420752
0.00083840726 0.02586388 0.20200001 16767200
0.0017883047 0.02586388 0.20200001 16767203
0.002738202 0.02586388 0.20200001 16105156
0.0036880991 0.02586388 0.20200001 13670038
0.0046379967 0.02586388 0.20200001 14787492
0.005587894 0.02586388 0.20200001 14655904
0.0065377913 0.02586388 0.20200001 14261661
0.0074876887 0.02586388 0.20200001 13934493
0.008437586 0.02586388 0.20200001 16501451
0.0093874829 0.02586388 0.20200001 16765397
0.01033738 0.02586388 0.20200001 16432842
0.011287278 0.02586388 0.20200001 14260644
0.012237174 0.02586388 0.20200001 14392482
0.013187071 0.02586388 0.20200001 14392480
0.014136969 0.02586388 0.20200001 14325917
0.015086867 0.02586388 0.20200001 13734550
0.016036766 0.02586388 0.20200001 15446713
0.016986661 0.02586388 0.20200001 16765143
0.017936559 0.02586388 0.20200001 16766430
0.018886456 0.02586388 0.20200001 14194849
0.019836355 0.02586388 0.20200001 14785955
0.02078625 0.02586388 0.20200001 13996439
0.021736149 0.02586388 0.20200001 14193818
0.022686046 0.02586388 0.20200001 13931161
0.023635944 0.02586388 0.20200001 14462898
0.024585839 0.02586388 0.20200001 16776439
0.025535738 0.02586388 0.20200001 16776185
0.026485635 0.02586388 0.20200001 16772336
0.027435534 0.02586388 0.20200001 13273999
0.028385431 0.02586388 0.20200001 14785437
0.029335327 0.02586388 0.20200001 13272198
0.030285222 0.02586388 0.20200001 13470862
0.031235121 0.02586388 0.20200001 13931413
0.032185018 0.02586388 0.20200001 13472405
0.033134915 0.02586388 0.20200001 12947614
0.034084816 0.02586388 0.20200001 16697815
0.035034712 0.02586388 0.20200001 16763863
0.035984609 0.02586388 0.20200001 16765403
0.036934502 0.02586388 0.20200001 14192280
0.037884403 0.02586388 0.20200001 15639467
0.0388343 0.02586388 0.20200001 15704744
0.039784197 0.02586388 0.20200001 15309984
0.040734094 0.02586388 0.20200001 15573156
0.041683994 0.02586388 0.20200001 16297649
0.042633891 0.02586388 0.20200001 14719644
0.043583788 0.02586388 0.20200001 11695994
0.044533681 0.02586388 0.20200001 9924979
-0.017294837 0.026946519 0.20300001 5523791
-0.016259743 0.026813777 0.20200001 10057597
-0.015309848 0.026813777 0.20200001 14262691
-0.01435995 0.026813777 0.20200001 14324888
-0.013410052 0.026813777 0.20200001 13863310
-0.012460155 0.026813777 0.20200001 15309219
-0.011510259 0.026813777 0.20200001 16757691
-0.010560361 0.026813777 0.20200001 16756664
-0.0096104639 0.026813777 0.20200001 16623539
-0.0086605661 0.026813777 0.20200001 14980767
-0.0077106687 0.026813777 0.20200001 13929108
-0.0067607709 0.026813777 0.20200001 16766687
-0.0058108736 0.026813777 0.20200001 16766942
-0.0048609762 0.026813777 0.20200001 15511990
-0.0039110789 0.026813777 0.20200001 14325917
-0.002961182 0.026813777 0.20200001 14392480
-0.0020112847 0.026813777 0.20200001 12487563
-0.0010613874 0.026813777 0.20200001 13211549
-0.00011149003 0.026813777 0.20200001 16765917
0.00083840726 0.026813777 0.20200001 16765401
0.0017883047 0.026813777 0.20200001 16766943
0.002738202 0.026813777 0.20200001 13800604
0.0036880991 0.026813777 0.20200001 14720675
0.0046379967 0.026813777 0.20200001 14720929
0.005587894 0.026813777 0.20200001 15049381
0.0065377913 0.026813777 0.20200001 14654623
0.0074876887 0.026813777 0.20200001 13865366
0.008437586 0.026813777 0.20200001 15315127
0.0093874829 0.026813777 0.20200001 16767455
0.01033738 0.026813777 0.20200001 16769513
0.011287278 0.026813777 0.20200001 15181228
0.012237174 0.026813777 0.20200001 14391197
0.013187071 0.026813777 0.20200001 13865107
0.014136969 0.026813777 0.20200001 14062999
0.015086867 0.026813777 0.20200001 14589089
0.016036766 0.026813777 0.20200001 16563651
0.016986661 0.026813777 0.20200001 16762575
0.017936559 0.026813777 0.20200001 13996187
0.018886456 0.026813777 0.20200001 14126485
0.019836355 0.026813777 0.20200001 13205383
0.02078625 0.026813777 0.20200001 13008004
0.021736149 0.026813777 0.20200001 12679811
0.022686046 0.026813777 0.20200001 13668505
0.023635944 0.026813777 0.20200001 16502744
0.024585839 0.026813777 0.20200001 16776441
0.025535738 0.026813777 0.20200001 16776441
0.026485635 0.026813777 0.20200001 16637149
0.027435534 0.026813777 0.20200001 15314357
0.028385431 0.026813777 0.20200001 15706287
0.029335327 0.026813777 0.20200001 15376806
0.030285222 0.026813777 0.20200001 15443885
0.031235121 0.026813777 0.20200001 14062493
0.032185018 0.026813777 0.20200001 13800608
0.033134915 0.026813777 0.20200001 13867180
0.034084816 0.026813777 0.20200001 16763866
0.035034712 0.026813777 0.20200001 16764121
0.035984609 0.026813777 0.20200001 16766174
0.036934502 0.026813777 0.20200001 13732497
0.037884403 0.026813777 0.20200001 15178916
0.0388343 0.026813777 0.20200001 14981791
0.039784197 0.026813777 0.20200001 14981791
0.04053244 0.026681036 0.20100001 13271173
0.041477636 0.026681036 0.20100001 13075591
0.042422831 0.026681036 0.20100001 13144725
-0.017294837 0.027901119 0.20300001 6510675
-0.016340237 0.027901119 0.20300001 5849665
-0.015385639 0.027901119 0.20300001 10513773
-0.014431039 0.027901119 0.20300001 14326941
-0.013410052 0.027763674 0.20200001 13799827
-0.012460155 0.027763674 0.20200001 14323609
-0.011510259 0.027763674 0.20200001 16032942
-0.010560361 0.027763674 0.20200001 15703461
-0.0096104639 0.027763674 0.20200001 15638438
-0.0086605661 0.027763674 0.20200001 15376549
-0.0077106687 0.027763674 0.20200001 14916771
-0.0067607709 0.027763674 0.20200001 16766688
-0.0058108736 0.027763674 0.20200001 16766943
-0.0048609762 0.027763674 0.20200001 16767457
-0.0039110789 0.027763674 0.20200001 14456990
-0.002961182 0.027763674 0.20200001 14458273
-0.0020112847 0.027763674 0.20200001 13145493
-0.0010613874 0.027763674 0.20200001 13276827
-0.00011149003 0.027763674 0.20200001 14064290
0.00083840726 0.027763674 0.20200001 15971775
0.0017883047 0.027763674 0.20200001 16762320
0.002738202 0.027763674 0.20200001 14589861
0.0036880991 0.027763674 0.20200001 14523550
0.0046379967 0.027763674 0.20200001 15181480
0.005587894 0.027763674 0.20200001 14720929
0.0065377913 0.027763674 0.20200001 15181480
0.0074876887 0.027763674 0.20200001 14720929
0.008437586 0.027763674 0.20200001 14458273
0.0093874829 0.027763674 0.20200001 16234684
0.01033738 0.027763674 0.20200001 13995923
0.011287278 0.027763674 0.20200001 14389911
0.012237174 0.027763674 0.20200001 14718876
0.013187071 0.027763674 0.20200001 14522267
0.014136969 0.027763674 0.20200001 14785439
0.015086867 0.027763674 0.20200001 15180197
0.016036766 0.027763674 0.20200001 13206407
0.016986661 0.027763674 0.20200001 14061462
0.017936559 0.027763674 0.20200001 14193300
0.018886456 0.027763674 0.20200001 14061714
0.019836355 0.027763674 0.20200001 13863567
0.02078625 0.027763674 0.20200001 13336966
0.021736149 0.027763674 0.20200001 12876418
0.022686046 0.027763674 0.20200001 16034230
0.023635944 0.027763674 0.20200001 13863063
0.024585839 0.027763674 0.20200001 15051957
0.025535738 0.027763674 0.20200001 16768226
0.026485635 0.027763674 0.20200001 15120832
0.027435534 0.027763674 0.20200001 16773111
0.028385431 0.027763674 0.20200001 16367815
0.029335327 0.027763674 0.20200001 13272718
0.030285222 0.027763674 0.20200001 16166586
0.031235121 0.027763674 0.20200001 15246769
0.032185018 0.027763674 0.20200001 14787503
0.033134915 0.027763674 0.20200001 13669536
0.034084816 0.027763674 0.20200001 13669018
0.035034712 0.027763674 0.20200001 14128538
0.035984609 0.027763674 0.20200001 14916001
0.036934502 0.027763674 0.20200001 12942211
0.037884403 0.027763674 0.20200001 14324118
0.0388343 0.027763674 0.20200001 13798544
0.039784197 0.027763674 0.20200001 12811649
0.04053244 0.027626231 0.20100001 12682116
0.041477636 0.027626231 0.20100001 12421002
-0.017380035 0.028997866 0.20400001 5327693
-0.016340237 0.028855719 0.20300001 9667204
-0.015461431 0.028997866 0.20400001 11636881
-0.014431039 0.028855719 0.20300001 12026242
-0.013410052 0.028713573 0.20200001 12156031
-0.012460155 0.028713573 0.20200001 13404302
-0.011510259 0.028713573 0.20200001 14587290
-0.010560361 0.028713573 0.20200001 15113377
-0.0096104639 0.028713573 0.20200001 14192275
-0.0086605661 0.028713573 0.20200001 14916255
-0.0077106687 0.028713573 0.20200001 14917025
-0.0067607709 0.028713573 0.20200001 14391712
-0.0058108736 0.028713573 0.20200001 14259872
-0.0048609762 0.028713573 0.20200001 14391199
-0.0039110789 0.028713573 0.20200001 15048357
-0.002961182 0.028713573 0.20200001 14458527
-0.0020112847 0.028713573 0.20200001 13605792
-0.0010613874 0.028713573 0.20200001 13013907
-0.00011149003 0.028713573 0.20200001 13406352
0.00083840726 0.028713573 0.20200001 13799827
0.0017883047 0.028713573 0.20200001 13602448
0.002738202 0.028713573 0.20200001 14260124
0.0036880991 0.028713573 0.20200001 13471378
0.0046379967 0.028713573 0.20200001 13405839
0.005587894 0.028713573 0.20200001 12945288
0.0065377913 0.028713573 0.20200001 13470862
0.0074876887 0.028713573 0.20200001 13207690
0.008437586 0.028713573 0.20200001 13865618
0.0093874829 0.028713573 0.20200001 13732747
0.01033738 0.028713573 0.20200001 13403782
0.011287278 0.028713573 0.20200001 13863563
0.012237174 0.028713573 0.20200001 13995151
0.013187071 0.028713573 0.20200001 14126737
0.014136969 0.028713573 0.20200001 12745856
0.015086867 0.028713573 0.20200001 12745856
0.016036766 0.028713573 0.20200001 12680063
0.016986661 0.028713573 0.20200001 12548477
0.017936559 0.028713573 0.20200001 13272968
0.018886456 0.028713573 0.20200001 13733519
0.019836355 0.028713573 0.20200001 13536140
0.02078625 0.028713573 0.20200001 13666956
0.021736149 0.028713573 0.20200001 13798544
0.022686046 0.028713573 0.20200001 13863567
0.023635944 0.028713573 0.20200001 13928079
0.024585839 0.028713573 0.20200001 15046560
0.025535738 0.028713573 0.20200001 16429240
0.026485635 0.028713573 0.20200001 16364737
0.027435534 0.028713573 0.20200001 15246771
0.028385431 0.028713573 0.20200001 15706035
0.029335327 0.028713573 0.20200001 16759238
0.030285222 0.028713573 0.20200001 15969207
0.031235121 0.028713573 0.20200001 14193568
0.032185018 0.028713573 0.20200001 13207956
0.033134915 0.028713573 0.20200001 12748432
0.034084816 0.028713573 0.20200001 12748684
0.035034712 0.028713573 0.20200001 12682375
0.035984609 0.028713573 0.20200001 12812678
0.036934502 0.028713573 0.20200001 12483454
0.037884403 0.028713573 0.20200001 12088696
0.0388343 0.028713573 0.20200001 12155002
0.039784197 0.028713573 0.20200001 12354178
0.04053244 0.028571425 0.20100001 12421772
0.041477636 0.028571425 0.20100001 9595499
-0.017380035 0.029957168 0.20400001 5264214
-0.016420731 0.029957168 0.20400001 5066065
-0.015461431 0.029957168 0.20400001 5390919
-0.014502128 0.029957168 0.20400001 8345945
-0.013476439 0.029810319 0.20300001 10907761
-0.012521839 0.029810319 0.20300001 11235181
-0.011510259 0.02966347 0.20200001 11957621
-0.010560361 0.02966347 0.20200001 12417661
-0.0096104639 0.02966347 0.20200001 12810879
-0.0086605661 0.02966347 0.20200001 12745086
-0.0077106687 0.02966347 0.20200001 13207177
-0.0067607709 0.02966347 0.20200001 13405069
-0.0058108736 0.02966347 0.20200001 14128792
-0.0048609762 0.02966347 0.20200001 14260378
-0.0039110789 0.02966347 0.20200001 14391964
-0.002961182 0.02966347 0.20200001 13932956
-0.0020112847 0.02966347 0.20200001 12290699
-0.0010613874 0.02966347 0.20200001 12553356
-0.00011149003 0.02966347 0.20200001 12616836
0.00083840726 0.02966347 0.20200001 12747909
0.0017883047 0.02966347 0.20200001 13076104
0.002738202 0.02966347 0.20200001 13734550
0.0036880991 0.02966347 0.20200001 13011854
0.0046379967 0.02966347 0.20200001 12419203
0.005587894 0.02966347 0.20200001 12419203
0.0065377913 0.02966347 0.20200001 12748422
0.0074876887 0.02966347 0.20200001 12485250
0.008437586 0.02966347 0.20200001 13208458
0.0093874829 0.02966347 0.20200001 13470860
0.01033738 0.02966347 0.20200001 13536138
0.011287278 0.02966347 0.20200001 13404554
0.012237174 0.02966347 0.20200001 13207177
0.013187071 0.02966347 0.20200001 13075591
0.014136969 0.02966347 0.20200001 12483454
0.015086867 0.02966347 0.20200001 12417661
0.016036766 0.02966347 0.20200001 12483454
0.016986661 0.02966347 0.20200001 12155002
0.017936559 0.02966347 0.20200001 12353151
0.018886456 0.02966347 0.20200001 12550530
0.019836355 0.02966347 0.20200001 12879495
0.02078625 0.02966347 0.20200001 13076874
0.021736149 0.02966347 0.20200001 13536142
0.022686046 0.02966347 0.20200001 13864337
0.023635944 0.02966347 0.20200001 13929360
0.024585839 0.02966347 0.20200001 14651802
0.025535738 0.02966347 0.20200001 14061716
0.026485635 0.02966347 0.20200001 14851748
0.027435534 0.02966347 0.20200001 13075085
0.028385431 0.02966347 0.20200001 14522015
0.029335327 0.02966347 0.20200001 13797522
0.030285222 0.02966347 0.20200001 13206155
0.031235121 0.02966347 0.20200001 12746374
0.032344349 0.029810319 0.20300001 12022910
0.033298951 0.029810319 0.20300001 11958400
0.034253553 0.029810319 0.20300001 12287619
0.035208151 0.029810319 0.20300001 12748168
0.036162753 0.029810319 0.20300001 12813961
0.037117347 0.029810319 0.20300001 12813448
0.038071949 0.029810319 0.20300001 11958654
0.039026547 0.029810319 0.20300001 12485510
0.039784197 0.02966347 0.20200001 11303289
0.04053244 0.029516621 0.20100001 10712951
-0.017550427 0.031219574 0.20600002 5001558
-0.01658172 0.031219574 0.20600002 4804433
-0.015613014 0.031219574 0.20600002 5000270
-0.014573216 0.031068023 0.20500001 5850438
-0.013542825 0.030916471 0.20400001 9859184
-0.012521839 0.030764919 0.20300001 10843251
-0.01156724 0.030764919 0.20300001 12092289
-0.01061264 0.030764919 0.20300001 11630455
-0.0096580405 0.030764919 0.20300001 11958393
-0.0087034404 0.030764919 0.20300001 12550530
-0.0077488404 0.030764919 0.20300001 12747907
-0.0067942403 0.030764919 0.20300001 12353149
-0.0058396407 0.030764919 0.20300001 12353151
-0.0048850407 0.030764919 0.20300001 13274766
-0.0039304411 0.030764919 0.20300001 12945801
-0.0029758413 0.030764919 0.20300001 13473688
-0.0020212415 0.030764919 0.20300001 11962248
-0.0010666418 0.030764919 0.20300001 11369595
-0.00011204195 0.030764919 0.20300001 12091774
0.00084255781 0.030764919 0.20300001 12880520
0.0017971577 0.030764919 0.20300001 12683141
0.0027517574 0.030764919 0.20300001 13012624
0.0037063572 0.030764919 0.20300001 11039865
0.004660957 0.030764919 0.20300001 11697279
0.0056155566 0.030764919 0.20300001 11894656
0.0065701571 0.030764919 0.20300001 12354694
0.0075247562 0.030764919 0.20300001 12486280
0.0084793568 0.030764919 0.20300001 12880008
0.0094339559 0.030764919 0.20300001 12880008
0.010388555 0.030764919 0.20300001 12747909
0.011343156 0.030764919 0.20300001 12682116
0.012297755 0.030764919 0.20300001 12812678
0.013252354 0.030764919 0.20300001 12352127
0.014206954 0.030764919 0.20300001 12220541
0.015161554 0.030764919 0.20300001 12615553
0.016116155 0.030764919 0.20300001 12483967
0.017070753 0.030764919 0.20300001 12813702
0.018025354 0.030764919 0.20300001 12813961
0.018979954 0.030764919 0.20300001 12813963
0.019934554 0.030764919 0.20300001 12484998
0.020889154 0.030764919 0.20300001 12879754
0.021843754 0.030764919 0.20300001 12945034
0.022798354 0.030764919 0.20300001 13141897
0.023752954 0.030764919 0.20300001 13339276
0.024707552 0.030764919 0.20300001 12944518
0.025662152 0.030764919 0.20300001 12088955
0.026616752 0.030764919 0.20300001 12023162
0.027571352 0.030764919 0.20300001 12417922
0.028525952 0.030764919 0.20300001 12615301
0.029480552 0.030764919 0.20300001 12154748
0.03043515 0.030764919 0.20300001 12022649
0.031389751 0.030764919 0.20300001 12614788
0.032344349 0.030764919 0.20300001 12681094
0.033298951 0.030764919 0.20300001 12156033
0.034253553 0.030764919 0.20300001 12221826
0.035381589 0.030916471 0.20400001 12287617
0.036340892 0.030916471 0.20400001 12287617
0.037300192 0.030916471 0.20400001 12287617
0.038071949 0.030764919 0.20300001 12156545
0.039026547 0.030764919 0.20300001 12025729
0.039784197 0.030613368 0.20200001 11633283
-0.017891211 0.032813296 0.21000001 4672593
-0.016742706 0.032500789 0.208 4672593
-0.015688805 0.032344535 0.20700002 4738640
-0.014644306 0.032188281 0.20600002 5130827
-0.013609212 0.032032028 0.20500001 7098710
-0.012521839 0.031719521 0.20300001 8607834
-0.011624222 0.031875774 0.20400001 10053737
-0.010664918 0.031875774 0.20400001 10776947
-0.0097056171 0.031875774 0.20400001 11236213
-0.0087463139 0.031875774 0.20400001 11893373
-0.007787012 0.031875774 0.20400001 12485764
-0.0068277097 0.031875774 0.20400001 12222592
-0.0058396407 0.031719521 0.20300001 12025213
-0.0048850407 0.031719521 0.20300001 12156545
-0.0039304411 0.031719521 0.20300001 12420487
-0.0029758413 0.031719521 0.20300001 11961734
-0.0020212415 0.031719521 0.20300001 10976636
-0.0010666418 0.031719521 0.20300001 11107707
-0.00011204195 0.031719521 0.20300001 11828863
0.00084255781 0.031719521 0.20300001 11697018
0.0017971577 0.031719521 0.20300001 12354948
0.0027517574 0.031719521 0.20300001 11829635
0.0037063572 0.031719521 0.20300001 11304318
0.004660957 0.031719521 0.20300001 11501183
0.0056155566 0.031719521 0.20300001 11895428
0.0065701571 0.031719521 0.20300001 12421002
0.0075247562 0.031719521 0.20300001 12355209
0.0084793568 0.031719521 0.20300001 12814475
0.0094339559 0.031719521 0.20300001 12485510
0.010388555 0.031719521 0.20300001 12682889
0.011343156 0.031719521 0.20300001 12682375
0.012297755 0.031719521 0.20300001 12813961
0.013317637 0.031875774 0.20400001 12353410
0.014276939 0.031875774 0.20400001 12418692
0.015236243 0.031875774 0.20400001 12418692
0.016195545 0.031875774 0.20400001 12748168
0.017154846 0.031875774 0.20400001 12748168
0.01811415 0.031875774 0.20400001 12353926
0.019073451 0.031875774 0.20400001 12222340
0.020032754 0.031875774 0.20400001 12485512
0.020992056 0.031875774 0.20400001 12353412
0.021951359 0.031875774 0.20400001 12287104
0.02291066 0.031875774 0.20400001 13010827
0.023869963 0.031875774 0.20400001 12879241
0.024829265 0.031875774 0.20400001 12089725
0.025788568 0.031875774 0.20400001 12023162
0.026747869 0.031875774 0.20400001 11892346
0.027707173 0.031875774 0.20400001 12154748
0.028666476 0.031875774 0.20400001 12352127
0.029625777 0.031875774 0.20400001 11759992
0.030585077 0.031875774 0.20400001 11760762
0.03154438 0.031875774 0.20400001 12089727
0.032503683 0.031875774 0.20400001 12353412
0.033462986 0.031875774 0.20400001 12287619
0.03442229 0.031875774 0.20400001 10774894
0.035555031 0.032032028 0.20500001 11104629
0.036519036 0.032032028 0.20500001 11302006
0.037483037 0.032032028 0.20500001 11959936
0.038259495 0.031875774 0.20400001 12026242
0.039218798 0.031875774 0.20400001 11698560
0.039784197 0.031563267 0.20200001 10713980
-0.017891211 0.033800814 0.21000001 4935765
-0.016823201 0.033639856 0.20900001 4934995
-0.015688805 0.033317946 0.20700002 4803663
-0.014715395 0.033317946 0.20700002 4934222
-0.013741985 0.033317946 0.20700002 5785677
-0.012645207 0.032996032 0.20500001 8214875
-0.011681203 0.032996032 0.20500001 9265251
-0.010717198 0.032996032 0.20500001 10646388
-0.0097531937 0.032996032 0.20500001 11105912
-0.0087891882 0.032996032 0.20500001 11894145
-0.007787012 0.032835077 0.20400001 12223108
-0.0068277097 0.032835077 0.20400001 12749452
-0.0058684074 0.032835077 0.20400001 12749706
-0.0049091051 0.032835077 0.20400001 12881292
-0.0039498028 0.032835077 0.20400001 13078930
-0.0029905008 0.032835077 0.20400001 12750996
-0.0020311985 0.032835077 0.20400001 10252146
-0.0010718962 0.032835077 0.20400001 11962248
-0.00011259389 0.032835077 0.20400001 12026242
0.00084670831 0.032835077 0.20400001 11696764
0.0018060107 0.032835077 0.20400001 11499898
0.002765313 0.032835077 0.20400001 11501697
0.0037246151 0.032835077 0.20400001 11172480
0.0046839174 0.032835077 0.20400001 11961221
0.0056432197 0.032835077 0.20400001 11829635
0.0066025225 0.032835077 0.20400001 12355209
0.0075618243 0.032835077 0.20400001 12486282
0.0085211266 0.032835077 0.20400001 12749454
0.0094804289 0.032835077 0.20400001 12683661
0.01043973 0.032835077 0.20400001 12222340
0.011399033 0.032835077 0.20400001 12221826
0.012358335 0.032835077 0.20400001 12682891
0.01338292 0.032996032 0.20500001 12814477
0.014346925 0.032996032 0.20500001 12813963
0.01531093 0.032996032 0.20500001 12156033
0.016274935 0.032996032 0.20500001 11432824
0.017238939 0.032996032 0.20500001 12616844
0.018202944 0.032996032 0.20500001 12486028
0.019166948 0.032996032 0.20500001 12025477
0.020130955 0.032996032 0.20500001 12420489
0.021094957 0.032996032 0.20500001 12223110
0.022058962 0.032996032 0.20500001 11761789
0.023022968 0.032996032 0.20500001 12156033
0.023986973 0.032996032 0.20500001 12879243
0.024950977 0.032996032 0.20500001 12681862
0.025914982 0.032996032 0.20500001 12221311
0.026878987 0.032996032 0.20500001 12287358
0.027842993 0.032996032 0.20500001 12813448
0.028806997 0.032996032 0.20500001 12221311
0.029771002 0.032996032 0.20500001 11760762
0.030735005 0.032996032 0.20500001 11498103
0.031699009 0.032996032 0.20500001 11630203
0.032663014 0.032996032 0.20500001 12025477
0.033627018 0.032996032 0.20500001 12222856
0.034591027 0.032996032 0.20500001 11564926
0.035728469 0.033156991 0.20600002 11170935
0.036697175 0.033156991 0.20600002 11565691
0.037665881 0.033156991 0.20600002 12092035
0.038634591 0.033156991 0.20600002 9987431
0.039411049 0.032996032 0.20500001 9791595
-0.017891211 0.034788329 0.21000001 5001558
-0.016823201 0.034622669 0.20900001 4738386
-0.015840387 0.034622669 0.20900001 4869456
-0.014786483 0.034457009 0.208 5000272
-0.013808371 0.034457009 0.208 5327697
-0.012706892 0.034125693 0.20600002 6703950
-0.011681203 0.033960037 0.20500001 9332842
-0.010769477 0.034125693 0.20600002 10647158
-0.0098007703 0.034125693 0.20600002 10843767
-0.0088320626 0.034125693 0.20600002 10909046
-0.0078251837 0.033960037 0.20500001 11500668
-0.0068611787 0.033960037 0.20500001 12091522
-0.0058971741 0.033960037 0.20500001 12552073
-0.0049331691 0.033960037 0.20500001 12618379
-0.0039691646 0.033960037 0.20500001 12355979
-0.00300516 0.033960037 0.20500001 12158346
-0.0020411552 0.033960037 0.20500001 10777206
-0.0010771506 0.033960037 0.20500001 11237498
-0.00011314582 0.033960037 0.20500001 10973556
0.00085085887 0.033960037 0.20500001 11039347
0.0018148638 0.033960037 0.20500001 11040117
0.0027788684 0.033960037 0.20500001 11764617
0.003742873 0.033960037 0.20500001 11238273
0.0047068777 0.033960037 0.20500001 12421002
0.0056708823 0.033960037 0.20500001 12552073
0.0066348878 0.033960037 0.20500001 12748682
0.0075988919 0.033960037 0.20500001 12880268
0.0085628973 0.033960037 0.20500001 12354696
0.0095269019 0.033960037 0.20500001 12025731
0.010490905 0.033960037 0.20500001 11301754
0.011454911 0.033960037 0.20500001 11300984
0.012418916 0.033960037 0.20500001 12090754
0.013448202 0.034125693 0.20600002 12617098
0.01441691 0.034125693 0.20600002 12814477
0.015385618 0.034125693 0.20600002 11827582
0.016354324 0.034125693 0.20600002 11301238
0.017323032 0.034125693 0.20600002 11695742
0.01829174 0.034125693 0.20600002 11631232
0.019260446 0.034125693 0.20600002 11368060
0.020229153 0.034125693 0.20600002 11499646
0.021197861 0.034125693 0.20600002 11894404
0.022166567 0.034125693 0.20600002 11828611
0.023135275 0.034125693 0.20600002 11892607
0.024103982 0.034125693 0.20600002 12813963
0.025072688 0.034125693 0.20600002 12287617
0.026041396 0.034125693 0.20600002 12681862
0.027010104 0.034125693 0.20600002 12550276
0.027978811 0.034125693 0.20600002 12682375
0.028947519 0.034125693 0.20600002 12288131
0.029916227 0.034125693 0.20600002 11893373
0.030884931 0.034125693 0.20600002 11564408
0.031853639 0.034125693 0.20600002 11236215
0.032822348 0.034125693 0.20600002 11762559
0.033791054 0.034125693 0.20600002 11762305
0.034759764 0.034125693 0.20600002 11960451
0.035901908 0.034291353 0.20700002 11237498
0.036875319 0.034291353 0.20700002 10974326
0.037848726 0.034291353 0.20700002 10316142
0.039009679 0.034457009 0.208 10053483
0.039795548 0.034291353 0.20700002 9398122
0.041359808 0.034788329 0.21000001 6639443
-0.017720819 0.035435122 0.208 4738386
-0.015916178 0.035775844 0.21000001 4804433
-0.014786483 0.035435122 0.208 4738640
-0.013874757 0.035605483 0.20900001 4869456
-0.012830258 0.035435122 0.208 5983309
-0.011681203 0.034924041 0.20500001 8084059
-0.010769477 0.035094403 0.20600002 9068385
-0.0098483469 0.035264764 0.20700002 10186607
-0.008874937 0.035264764 0.20700002 10252400
-0.0078633558 0.035094403 0.20600002 11041146
-0.0068946481 0.035094403 0.20600002 11369082
-0.0059259408 0.035094403 0.20600002 12027012
-0.0049572336 0.035094403 0.20600002 12158598
-0.0039885263 0.035094403 0.20600002 12158600
-0.0030198193 0.035094403 0.20600002 11829635
-0.0020511122 0.035094403 0.20600002 11369084
-0.001082405 0.035094403 0.20600002 10973556
-0.00011369775 0.035094403 0.20600002 10907763
0.00085500942 0.035094403 0.20600002 10842740
0.0018237167 0.035094403 0.20600002 11764355
0.0027924238 0.035094403 0.20600002 12160143
0.0037611309 0.035094403 0.20600002 12093580
0.0047298381 0.035094403 0.20600002 12486795
0.0056985454 0.035094403 0.20600002 12551303
0.0066672531 0.035094403 0.20600002 12485510
0.0076359599 0.035094403 0.20600002 12353924
0.0086046671 0.035094403 0.20600002 11959936
0.0095733739 0.035094403 0.20600002 11762559
0.010542081 0.035094403 0.20600002 11235961
0.011510788 0.035094403 0.20600002 11564156
0.012479495 0.035094403 0.20600002 11629949
0.013513485 0.035264764 0.20700002 12353412
0.014486895 0.035264764 0.20700002 12748430
0.015460305 0.035264764 0.20700002 11695742
0.016433716 0.035264764 0.20700002 11300984
0.017407123 0.035264764 0.20700002 11432570
0.018380534 0.035264764 0.20700002 11235961
0.019353945 0.035264764 0.20700002 11236474
0.020327354 0.035264764 0.20700002 11039865
0.021300763 0.035264764 0.20700002 10908279
0.022274172 0.035264764 0.20700002 11368832
0.023247583 0.035264764 0.20700002 11763590
0.024220992 0.035264764 0.20700002 12091524
0.025194401 0.035264764 0.20700002 12552075
0.026167812 0.035264764 0.20700002 12748684
0.027141221 0.035264764 0.20700002 12748684
0.028114632 0.035264764 0.20700002 12485512
0.029088041 0.035264764 0.20700002 11827582
0.030061452 0.035264764 0.20700002 11367029
0.031034859 0.035264764 0.20700002 11827580
0.032008268 0.035264764 0.20700002 11696764
0.032981679 0.035264764 0.20700002 11433592
0.03395509 0.035264764 0.20700002 11105140
0.035097234 0.035435122 0.208 11565691
0.036075346 0.035435122 0.208 11303291
0.037231602 0.035605483 0.20900001 10974326
0.038214412 0.035605483 0.20900001 10514034
0.039197229 0.035605483 0.20900001 10185583
0.040372293 0.035775844 0.21000001 9465460
0.041556761 0.035946205 0.21100001 5523275
-0.017550427 0.036063109 0.20600002 4672847
-0.014857572 0.0365883 0.20900001 4738640
-0.013941144 0.036763363 0.21000001 4738640
-0.012953627 0.036763363 0.21000001 5262413
-0.011795166 0.036238175 0.20700002 6967374
-0.010821756 0.036238175 0.20700002 7885394
-0.0098959226 0.036413234 0.208 9265764
-0.0089178104 0.036413234 0.208 10317939
-0.0079396982 0.036413234 0.208 11041662
-0.0069281175 0.036238175 0.20700002 11436672
-0.0059547075 0.036238175 0.20700002 11633281
-0.004981298 0.036238175 0.20700002 11435388
-0.004007888 0.036238175 0.20700002 11434875
-0.0030344788 0.036238175 0.20700002 11500668
-0.002061069 0.036238175 0.20700002 11566461
-0.0010876594 0.036238175 0.20700002 11631484
-0.00011424968 0.036238175 0.20700002 11368312
0.00085915992 0.036238175 0.20700002 12158600
0.0018325697 0.036238175 0.20700002 12422285
0.0028059795 0.036238175 0.20700002 12554385
0.003779389 0.036238175 0.20700002 12290959
0.0047527985 0.036238175 0.20700002 12487311
0.0057262084 0.036238175 0.20700002 12289416
0.0066996184 0.036238175 0.20700002 12354694
0.0076730275 0.036238175 0.20700002 12156545
0.0086464379 0.036238175 0.20700002 12354694
0.0096198469 0.036238175 0.20700002 11894143
0.010593256 0.036238175 0.20700002 11695996
0.011566667 0.036238175 0.20700002 11827068
0.012540076 0.036238175 0.20700002 11826555
0.013578767 0.036413234 0.208 12024447
0.014556879 0.036413234 0.208 11893121
0.015534991 0.036413234 0.208 11893121
0.016513104 0.036413234 0.208 11695996
0.017491216 0.036413234 0.208 11367031
0.018469328 0.036413234 0.208 11235445
0.01944744 0.036413234 0.208 11236215
0.020425553 0.036413234 0.208 11104888
0.021403663 0.036413234 0.208 11565439
0.022381775 0.036413234 0.208 11500418
0.023359889 0.036413234 0.208 11763590
0.024338001 0.036413234 0.208 11631232
0.025316112 0.036413234 0.208 12420748
0.026294224 0.036413234 0.208 12420235
0.027272336 0.036413234 0.208 13011602
0.028250448 0.036413234 0.208 12814477
0.029228562 0.036413234 0.208 11367029
0.030206675 0.036413234 0.208 11827580
0.031184783 0.036413234 0.208 11761787
0.032162897 0.036413234 0.208 11565178
0.03330034 0.0365883 0.20900001 12157315
0.034283157 0.0365883 0.20900001 11631484
0.035265971 0.0365883 0.20900001 11499898
0.036422227 0.036763363 0.21000001 11040119
0.037587885 0.036938425 0.21100001 9987690
0.038580101 0.036938425 0.21100001 9856618
0.039572321 0.036938425 0.21100001 9594729
0.040756792 0.037113491 0.21200001 8743533
0.041753713 0.037113491 0.21200001 5261132
-0.013941144 0.037750881 0.21000001 4738640
-0.013138679 0.03829018 0.21300001 5066063
-0.011909128 0.037571114 0.20900001 6179403
-0.010821756 0.037211582 0.20700002 7228750
-0.0099910758 0.037750881 0.21000001 8542811
-0.0089606848 0.037571114 0.20900001 9528938
-0.0079778703 0.037571114 0.20900001 9660522
-0.0069950554 0.037571114 0.20900001 10910330
-0.0059834737 0.037391346 0.208 11239293
-0.005005362 0.037391346 0.208 11370109
-0.0040272498 0.037391346 0.208 11961986
-0.0030491378 0.037391346 0.208 11764607
-0.0020710258 0.037391346 0.208 12093572
-0.0010929137 0.037391346 0.208 11369082
-0.00011480161 0.037391346 0.208 11697277
0.00086331042 0.037391346 0.208 11566461
0.0018414226 0.037391346 0.208 12225166
0.0028195346 0.037391346 0.208 12227219
0.0037976466 0.037391346 0.208 12094863
0.0047757588 0.037391346 0.208 12224654
0.0057538706 0.037391346 0.208 11829381
0.0067319833 0.037391346 0.208 12026244
0.007710095 0.037391346 0.208 11894658
0.0086882077 0.037391346 0.208 11696766
0.009666319 0.037391346 0.208 12090754
0.010644431 0.037391346 0.208 12813963
0.011622543 0.037391346 0.208 12550278
0.012600655 0.037391346 0.208 11958654
0.013644049 0.037571114 0.20900001 12156547
0.014626864 0.037571114 0.20900001 11170422
0.01560968 0.037571114 0.20900001 11762305
0.016592495 0.037571114 0.20900001 12354696
0.017575307 0.037571114 0.20900001 12552073
0.018558122 0.037571114 0.20900001 11565178
0.019540938 0.037571114 0.20900001 11960451
0.020523753 0.037571114 0.20900001 12552588
0.021506567 0.037571114 0.20900001 12421002
0.02248938 0.037571114 0.20900001 12355209
0.023472195 0.037571114 0.20900001 11894404
0.024455011 0.037571114 0.20900001 11368060
0.025437824 0.037571114 0.20900001 12024707
0.02642064 0.037571114 0.20900001 12551821
0.027403453 0.037571114 0.20900001 12157317
0.028386269 0.037571114 0.20900001 12091524
0.029369084 0.037571114 0.20900001 12091524
0.0303519 0.037571114 0.20900001 12354696
0.031484637 0.037750881 0.21000001 12091524
0.032472156 0.037750881 0.21000001 12091524
0.033459675 0.037750881 0.21000001 11959938
0.034447189 0.037750881 0.21000001 11170681
0.035603445 0.037930645 0.21100001 10513521
0.036769103 0.038110413 0.21200001 10184810
0.037944168 0.03829018 0.21300001 10383216
0.03894579 0.03829018 0.21300001 9726569
0.039759867 0.038110413 0.21200001 9728114
0.040949039 0.03829018 0.21300001 6509140
0.041950665 0.03829018 0.21300001 5065036
-0.01332373 0.03984521 0.21600001 5066835
-0.012421962 0.040214147 0.21800001 5786447
-0.011083151 0.039107334 0.21200001 6966861
-0.010133806 0.039291803 0.21300001 7688017
-0.0090464326 0.038922865 0.21100001 9332329
-0.0080542136 0.038922865 0.21100001 9858671
-0.0070285243 0.038738396 0.21000001 10319222
-0.0060410076 0.038738396 0.21000001 10450038
-0.005029426 0.038553927 0.20900001 10713464
-0.0040466115 0.038553927 0.20900001 11370881
-0.0030637973 0.038553927 0.20900001 11764867
-0.0020809826 0.038553927 0.20900001 11699074
-0.0010981681 0.038553927 0.20900001 11632767
-0.00011535354 0.038553927 0.20900001 12027014
0.00086746097 0.038553927 0.20900001 12158598
0.0018502757 0.038553927 0.20900001 11895426
0.0028330903 0.038553927 0.20900001 11700879
0.0038159045 0.038553927 0.20900001 10781835
0.0047987192 0.038553927 0.20900001 10385278
0.0057815337 0.038553927 0.20900001 11239045
0.0067643486 0.038553927 0.20900001 11303550
0.0077471626 0.038553927 0.20900001 11039865
0.0087299775 0.038553927 0.20900001 11565693
0.009712792 0.038553927 0.20900001 11630973
0.010695606 0.038553927 0.20900001 12024447
0.011678421 0.038553927 0.20900001 12681864
0.012661235 0.038553927 0.20900001 12682377
0.013709332 0.038738396 0.21000001 12288133
0.01469685 0.038738396 0.21000001 11762305
0.015684366 0.038738396 0.21000001 11499133
0.016671885 0.038738396 0.21000001 12354442
0.0176594 0.038738396 0.21000001 12486282
0.018646918 0.038738396 0.21000001 12486282
0.019634435 0.038738396 0.21000001 12617868
0.020621952 0.038738396 0.21000001 12223110
0.021609468 0.038738396 0.21000001 11894145
0.022596985 0.038738396 0.21000001 11696766
0.023584504 0.038738396 0.21000001 11696766
0.02457202 0.038738396 0.21000001 12025731
0.025559537 0.038738396 0.21000001 12025731
0.026547054 0.038738396 0.21000001 12091524
0.027534571 0.038738396 0.21000001 11894143
0.028522089 0.038738396 0.21000001 12157315
0.029509606 0.038738396 0.21000001 11959936
0.030642347 0.038922865 0.21100001 11960451
0.031634565 0.038922865 0.21100001 12092037
0.032626785 0.038922865 0.21100001 11565439
0.033619005 0.038922865 0.21100001 10775923
0.034775261 0.039107334 0.21200001 10579314
0.035940919 0.039291803 0.21300001 10119276
0.037115984 0.039476272 0.21400002 9988204
0.038122311 0.039476272 0.21400002 10252913
0.039128635 0.039476272 0.21400002 9924977
0.040510055 0.03984521 0.21600001 8414309
0.041525785 0.03984521 0.21600001 5326410
0.042147618 0.039476272 0.21400002 4802891
-0.013570466 0.041617624 0.22000001 4936019
-0.012535925 0.041617624 0.22000001 5327695
-0.011396824 0.041239284 0.21800001 6770767
-0.010228959 0.04067177 0.215 7229263
-0.0091750557 0.040482599 0.21400002 8477531
-0.0081305569 0.040293429 0.21300001 9069668
-0.0070954631 0.040104259 0.21200001 9463913
-0.006098541 0.040104259 0.21200001 9595499
-0.0050775548 0.039915085 0.21100001 9924464
-0.0040853354 0.039915085 0.21100001 10121073
-0.003093116 0.039915085 0.21100001 11108222
-0.0021008963 0.039915085 0.21100001 11502465
-0.0011086769 0.039915085 0.21100001 11106937
-0.00011590547 0.039725915 0.21000001 11698047
0.00087161153 0.039725915 0.21000001 12157828
0.0018591286 0.039725915 0.21000001 11236726
0.0028466457 0.039725915 0.21000001 10975871
0.0038341626 0.039725915 0.21000001 9991804
0.0048216796 0.039725915 0.21000001 9465973
0.0058091967 0.039725915 0.21000001 9268081
0.0067967139 0.039725915 0.21000001 9793395
0.0077842306 0.039725915 0.21000001 10974587
0.0087717483 0.039725915 0.21000001 12092037
0.009759265 0.039725915 0.21000001 12156545
0.010746782 0.039725915 0.21000001 12287617
0.011734298 0.039725915 0.21000001 11892859
0.012782396 0.039915085 0.21100001 12287619
0.013774615 0.039915085 0.21100001 12024961
0.014766835 0.039915085 0.21100001 11959684
0.015759055 0.039915085 0.21100001 12486541
0.016751274 0.039915085 0.21100001 11894404
0.017743492 0.039915085 0.21100001 11565693
0.018735712 0.039915085 0.21100001 12551305
0.019727932 0.039915085 0.21100001 12353926
0.020720152 0.039915085 0.21100001 12485512
0.02171237 0.039915085 0.21100001 12354696
0.02270459 0.039915085 0.21100001 12223110
0.02369681 0.039915085 0.21100001 12157317
0.02468903 0.039915085 0.21100001 11959938
0.025681248 0.039915085 0.21100001 11631486
0.026673468 0.039915085 0.21100001 11697279
0.027665688 0.039915085 0.21100001 12026244
0.028793728 0.040104259 0.21200001 12486795
0.029790651 0.040104259 0.21200001 11960451
0.030787572 0.040104259 0.21200001 11303291
0.031784493 0.040104259 0.21200001 10974585
0.032936044 0.040293429 0.21300001 10842999
0.03393767 0.040293429 0.21300001 10908792
0.035103329 0.040482599 0.21400002 10448755
0.036278389 0.04067177 0.215 10185583
0.037289418 0.04067177 0.215 10055280
0.038300451 0.04067177 0.215 9990257
0.039311476 0.04067177 0.215 8938600
0.040697601 0.041050114 0.21700001 6574163
0.041718036 0.041050114 0.21700001 4934220
0.042541519 0.04086094 0.21600001 4737870
-0.013693835 0.043039914 0.22200002 4737870
-0.012592907 0.042846043 0.22100002 5065808
-0.011501383 0.042652167 0.22000001 6311759
-0.010371689 0.042264421 0.21800001 7098445
-0.0092608025 0.041876674 0.21600001 8346459
-0.0082069002 0.041682798 0.215 8741217
-0.0071624015 0.041488927 0.21400002 9332840
-0.0061273077 0.041295055 0.21300001 9398633
-0.0051256833 0.041295055 0.21300001 10056050
-0.0041240589 0.041295055 0.21300001 10451062
-0.0031077752 0.04110118 0.21200001 11041916
-0.0021108533 0.04110118 0.21200001 11962246
-0.0011139313 0.04110118 0.21200001 11632767
-0.00011700934 0.04110118 0.21200001 11435388
0.00087991258 0.04110118 0.21200001 11698047
0.0018768347 0.04110118 0.21200001 11434875
0.0028737567 0.04110118 0.21200001 11369084
0.0038706784 0.04110118 0.21200001 11303804
0.0048676003 0.04110118 0.21200001 10713210
0.0058645224 0.04110118 0.21200001 9202542
0.0068614446 0.04110118 0.21200001 8873323
0.0078583667 0.04110118 0.21200001 11369859
0.0088552888 0.04110118 0.21200001 11763842
0.0098522101 0.04110118 0.21200001 12024961
0.010849132 0.04110118 0.21200001 11630203
0.011846054 0.04110118 0.21200001 12024961
0.012842976 0.04110118 0.21200001 11761789
0.013839898 0.04110118 0.21200001 11827582
0.01483682 0.04110118 0.21200001 11629949
0.015833743 0.04110118 0.21200001 11564926
0.016830664 0.04110118 0.21200001 12354955
0.017827585 0.04110118 0.21200001 12223110
0.018824508 0.04110118 0.21200001 12552075
0.01982143 0.04110118 0.21200001 12420489
0.020818353 0.04110118 0.21200001 12420489
0.021815274 0.04110118 0.21200001 12157317
0.022812195 0.04110118 0.21200001 12355209
0.023809118 0.04110118 0.21200001 11696766
0.024806039 0.04110118 0.21200001 11565693
0.025802961 0.04110118 0.21200001 11236728
0.026926298 0.041295055 0.21300001 10842486
0.027927924 0.041295055 0.21300001 10776693
0.028929548 0.041295055 0.21300001 11237244
0.029931173 0.041295055 0.21300001 11829381
0.031078022 0.041488927 0.21400002 11369859
0.032084346 0.041488927 0.21400002 10711929
0.033245303 0.041682798 0.215 10252148
0.034256332 0.041682798 0.215 10317939
0.035267361 0.041682798 0.215 10317939
0.036447126 0.041876674 0.21600001 9989487
0.03746286 0.041876674 0.21600001 9924464
0.038478591 0.041876674 0.21600001 9398122
0.03986001 0.042264421 0.21800001 8085090
0.040885147 0.042264421 0.21800001 5918033
0.042102534 0.042458296 0.21900001 4868684
0.042738467 0.042070545 0.21700001 4672075
-0.013755518 0.044282436 0.223 4738640
-0.012649888 0.044083863 0.22200002 4869456
-0.011553662 0.043885287 0.22100002 5392716
-0.010466842 0.04368671 0.22000001 6441800
-0.0093465513 0.043289557 0.21800001 7031369
-0.0082832435 0.04309098 0.21700001 8411738
-0.0072293393 0.042892404 0.21600001 8345945
-0.006184841 0.042693827 0.215 8345945
-0.0051738117 0.042693827 0.215 8871006
-0.0041434206 0.042495254 0.21400002 9660776
-0.003137094 0.042495254 0.21400002 10449779
-0.0021307671 0.042495254 0.21400002 10712951
-0.0011191857 0.042296678 0.21300001 11238525
-0.00011756127 0.042296678 0.21300001 11106939
0.00088406313 0.042296678 0.21300001 11172218
0.0018856877 0.042296678 0.21300001 11303804
0.0028873121 0.042296678 0.21300001 11895428
0.0038889365 0.042296678 0.21300001 11698049
0.0048905606 0.042296678 0.21300001 11829894
0.0058921855 0.042296678 0.21300001 11109253
0.0068938099 0.042296678 0.21300001 9267565
0.0078954343 0.042296678 0.21300001 11765902
0.0088970587 0.042296678 0.21300001 11698822
0.0098986831 0.042296678 0.21300001 11830148
0.010900307 0.042296678 0.21300001 11960451
0.011901932 0.042296678 0.21300001 11499133
0.012903556 0.042296678 0.21300001 11302008
0.01390518 0.042296678 0.21300001 11827582
0.014906805 0.042296678 0.21300001 11761535
0.015908429 0.042296678 0.21300001 11959684
0.016910054 0.042296678 0.21300001 12486541
0.017911678 0.042296678 0.21300001 11697795
0.018913303 0.042296678 0.21300001 12158346
0.019914927 0.042296678 0.21300001 12158346
0.020916553 0.042296678 0.21300001 11960967
0.021918176 0.042296678 0.21300001 11895687
0.0229198 0.042296678 0.21300001 11500929
0.024033733 0.042495254 0.21400002 11895941
0.02504006 0.042495254 0.21400002 11435390
0.026046386 0.042495254 0.21400002 11369597
0.027052714 0.042495254 0.21400002 11238011
0.028059041 0.042495254 0.21400002 11040119
0.029065367 0.042495254 0.21400002 10579314
0.030212216 0.042693827 0.215 11303550
0.031223245 0.042693827 0.215 9988206
0.032384198 0.042892404 0.21600001 9725804
0.033399932 0.042892404 0.21600001 9923696
0.034574997 0.04309098 0.21700001 9792108
0.035595428 0.04309098 0.21700001 9858671
0.036615863 0.04309098 0.21700001 9463913
0.037636299 0.04309098 0.21700001 9135463
0.039013017 0.043488134 0.21900001 8413026
0.040042855 0.043488134 0.21900001 6902875
0.041072693 0.043488134 0.21900001 5130314
0.042102534 0.043488134 0.21900001 4737868
-0.013755518 0.045331083 0.223 4607054
-0.012649888 0.045127805 0.22200002 4607054
-0.011605942 0.045127805 0.22200002 5065036
-0.010514419 0.044924527 0.22100002 5916233
-0.0094323 0.044721249 0.22000001 6966091
-0.0083595868 0.044517972 0.21900001 7294543
-0.0072962777 0.04431469 0.21800001 8017496
-0.0062423744 0.044111412 0.21700001 8017496
-0.0052219401 0.044111412 0.21700001 8542811
-0.0041821441 0.043908134 0.21600001 9003362
-0.0031664125 0.043908134 0.21600001 10186866
-0.0021407236 0.043704856 0.215 10713464
-0.0011296944 0.043704856 0.215 10910843
-0.00011866513 0.043704856 0.215 10647671
0.00089236413 0.043704856 0.215 11041916
0.0019033935 0.043704856 0.215 11436674
0.0029008675 0.043501578 0.21400002 11304064
0.0039071944 0.043501578 0.21400002 11501443
0.0049135215 0.043501578 0.21400002 11501443
0.0059198481 0.043501578 0.21400002 10450812
0.0069261757 0.043501578 0.21400002 9464944
0.0079325018 0.043501578 0.21400002 10582398
0.0089388294 0.043501578 0.21400002 11040894
0.0099451561 0.043501578 0.21400002 10909306
0.010951483 0.043501578 0.21400002 10908792
0.011957809 0.043501578 0.21400002 10513521
0.012964136 0.043501578 0.21400002 11895174
0.013970463 0.043501578 0.21400002 11170681
0.01497679 0.043501578 0.21400002 10841203
0.015983118 0.043501578 0.21400002 12420235
0.017068833 0.043704856 0.215 12026760
0.018079862 0.043704856 0.215 11698310
0.019090891 0.043704856 0.215 10711417
0.020101922 0.043704856 0.215 10909310
0.021112951 0.043704856 0.215 10580343
0.022123979 0.043704856 0.215 11040894
0.023135008 0.043704856 0.215 11172480
0.024146039 0.043704856 0.215 10777720
0.025157068 0.043704856 0.215 10382448
0.026168097 0.043704856 0.215 10251376
0.027179126 0.043704856 0.215 10711927
0.028321274 0.043908134 0.21600001 10842999
0.029337006 0.043908134 0.21600001 10250862
0.030352738 0.043908134 0.21600001 10580341
0.031513695 0.044111412 0.21700001 10252146
0.032534126 0.044111412 0.21700001 9923696
0.033709191 0.04431469 0.21800001 9200743
0.034734327 0.04431469 0.21800001 9069157
0.0359235 0.044517972 0.21900001 8082775
0.036953337 0.044517972 0.21900001 8543326
0.037983179 0.044517972 0.21900001 8281953
0.03919116 0.044721249 0.22000001 6442064
0.0402257 0.044721249 0.22000001 5458509
0.041260239 0.044721249 0.22000001 4934477
0.041718036 0.044111412 0.21700001 4607054
-0.012706869 0.046379734 0.223 4607567
-0.011605942 0.046171755 0.22200002 4803661
-0.010561995 0.046171755 0.22200002 5721681
-0.0094751734 0.045963772 0.22100002 6572618
-0.008397758 0.045755792 0.22000001 6966091
-0.0073632165 0.045755792 0.22000001 7491922
-0.0062999078 0.045547809 0.21900001 7886680
-0.0052700685 0.045547809 0.21900001 8083287
-0.0042208675 0.04533983 0.21800001 8609119
-0.0031810717 0.045131847 0.21700001 9858925
-0.0021606374 0.045131847 0.21700001 10910843
-0.0011349488 0.044923864 0.21600001 11174015
-0.00011921705 0.044923864 0.21600001 11108222
0.00089651468 0.044923864 0.21600001 11502467
0.0019122466 0.044923864 0.21600001 11634053
0.0029279783 0.044923864 0.21600001 11436420
0.003925452 0.044715885 0.215 11436420
0.0049364814 0.044715885 0.215 10778494
0.0059475107 0.044715885 0.215 10516605
0.0069585405 0.044715885 0.215 9268081
0.0079695694 0.044715885 0.215 10318972
0.0089805992 0.044715885 0.215 10515322
0.0099916281 0.044715885 0.215 10580343
0.011002657 0.044715885 0.215 11237757
0.012013687 0.044715885 0.215 12158859
0.013024716 0.044715885 0.215 12158346
0.014035745 0.044715885 0.215 11434623
0.01511676 0.044923864 0.21600001 12289162
0.016132491 0.044923864 0.21600001 12420748
0.017148223 0.044923864 0.21600001 10842999
0.018163955 0.044923864 0.21600001 10448241
0.019179687 0.044923864 0.21600001 10119792
0.020195419 0.044923864 0.21600001 10317171
0.021211151 0.044923864 0.21600001 10843515
0.022226881 0.044923864 0.21600001 10777722
0.023242613 0.044923864 0.21600001 10251378
0.024370654 0.045131847 0.21700001 10185585
0.025391087 0.045131847 0.21700001 9922411
0.02641152 0.045131847 0.21700001 10251376
0.027431956 0.045131847 0.21700001 10119790
0.028452391 0.045131847 0.21700001 9922411
0.029472824 0.045131847 0.21700001 10448755
0.030493259 0.045131847 0.21700001 10711927
0.031658918 0.04533983 0.21800001 10121075
0.032684054 0.04533983 0.21800001 9464430
0.03386382 0.045547809 0.21900001 8806760
0.034893658 0.045547809 0.21900001 8543842
0.036087532 0.045755792 0.22000001 7821402
0.037122075 0.045755792 0.22000001 8019812
0.038156617 0.045755792 0.22000001 5587785
0.03919116 0.045755792 0.22000001 5326412
