# .PCD v0.7 - Point Cloud Data file format
VERSION 0.7
FIELDS x y z rgb
SIZE 4 4 4 4
TYPE F F F U
COUNT 1 1 1 1
WIDTH 1092
HEIGHT 1
VIEWPOINT 0 0 0 1 0 0 0
POINTS 1092
DATA ascii
0.042065974 0.0070806798 0.18300001 16756919
0.042926524 0.0070806798 0.18300001 16757944
0.043787077 0.0070806798 0.18300001 16495030
0.044647627 0.0070806798 0.18300001 14196130
0.045259498 0.0070419875 0.18200001 6375504
0.045861967 0.0070032952 0.18100001 5065808
0.04671311 0.0070032952 0.18100001 4869456
-0.018073261 0.0078978352 0.18200001 5131599
-0.017217414 0.0078978352 0.18200001 10058110
-0.016361566 0.0078978352 0.18200001 12814477
-0.015505717 0.0078978352 0.18200001 13075337
-0.014649869 0.0078978352 0.18200001 13073540
-0.013794022 0.0078978352 0.18200001 13664394
-0.012938173 0.0078978352 0.18200001 13137532
-0.012148711 0.0079412302 0.18300001 13728901
-0.01128816 0.0079412302 0.18300001 12740977
-0.010427611 0.0079412302 0.18300001 14122115
-0.0095670596 0.0079412302 0.18300001 13334136
-0.0087065091 0.0079412302 0.18300001 11757162
-0.0078459587 0.0079412302 0.18300001 10574181
-0.0069854083 0.0079412302 0.18300001 11168121
-0.0061248573 0.0079412302 0.18300001 11167603
-0.0052643064 0.0079412302 0.18300001 11496818
-0.004403756 0.0079412302 0.18300001 10970474
-0.0035432056 0.0079412302 0.18300001 10642794
-0.0026826551 0.0079412302 0.18300001 12025227
-0.0018221044 0.0079412302 0.18300001 11104379
-0.00096155389 0.0079412302 0.18300001 9721954
-0.00010100334 0.0079412302 0.18300001 13210786
0.00075954717 0.0079412302 0.18300001 14065577
0.0016200979 0.0079412302 0.18300001 10379882
0.0024806485 0.0079412302 0.18300001 10116448
0.0033411989 0.0079412302 0.18300001 11958906
0.0042017493 0.0079412302 0.18300001 9788251
0.0050623002 0.0079412302 0.18300001 10118245
0.0059228512 0.0079412302 0.18300001 8474192
0.0067834011 0.0079412302 0.18300001 7223355
0.007643952 0.0079412302 0.18300001 7157562
0.0085045025 0.0079412302 0.18300001 7750215
0.0093650529 0.0079412302 0.18300001 8078930
0.010225603 0.0079412302 0.18300001 11103607
0.011086154 0.0079412302 0.18300001 12024193
0.011946704 0.0079412302 0.18300001 11957887
0.012807255 0.0079412302 0.18300001 12024447
0.013667806 0.0079412302 0.18300001 12484483
0.014528356 0.0079412302 0.18300001 11167853
0.015388906 0.0079412302 0.18300001 10181476
0.016249457 0.0079412302 0.18300001 16765401
0.017110009 0.0079412302 0.18300001 16369615
0.017970558 0.0079412302 0.18300001 10315113
0.01883111 0.0079412302 0.18300001 10772582
0.019691659 0.0079412302 0.18300001 10771812
0.020552211 0.0079412302 0.18300001 11562098
0.021412762 0.0079412302 0.18300001 11562098
0.022273311 0.0079412302 0.18300001 12877188
0.023133863 0.0079412302 0.18300001 11824500
0.023994412 0.0079412302 0.18300001 16765911
0.024854964 0.0079412302 0.18300001 16569557
0.025715515 0.0079412302 0.18300001 10776945
0.026576066 0.0079412302 0.18300001 8208965
0.027436614 0.0079412302 0.18300001 6037023
0.028297165 0.0079412302 0.18300001 5904667
0.029157715 0.0079412302 0.18300001 6102046
0.030018266 0.0079412302 0.18300001 7155250
0.030878818 0.0079412302 0.18300001 8274244
0.031739369 0.0079412302 0.18300001 10313827
0.032599919 0.0079412302 0.18300001 10511720
0.033460468 0.0079412302 0.18300001 12815506
0.034321018 0.0079412302 0.18300001 12880536
0.035181571 0.0079412302 0.18300001 16233664
0.03604212 0.0079412302 0.18300001 14059665
0.03690267 0.0079412302 0.18300001 13467782
0.037763223 0.0079412302 0.18300001 14520468
0.038623773 0.0079412302 0.18300001 13797517
0.039484326 0.0079412302 0.18300001 15705260
0.040344872 0.0079412302 0.18300001 15441572
0.041205425 0.0079412302 0.18300001 15637668
0.042065974 0.0079412302 0.18300001 16294828
0.042926524 0.0079412302 0.18300001 16362159
0.043787077 0.0079412302 0.18300001 15640748
0.044647627 0.0079412302 0.18300001 11829644
0.045259498 0.0078978352 0.18200001 6046541
0.045861967 0.0078544402 0.18100001 4802632
0.04671311 0.0078544402 0.18100001 4342589
-0.018073261 0.0087536834 0.18200001 5263185
-0.017217414 0.0087536834 0.18200001 6376271
-0.016361566 0.0087536834 0.18200001 14000034
-0.015505717 0.0087536834 0.18200001 14654623
-0.014649869 0.0087536834 0.18200001 13731981
-0.013794022 0.0087536834 0.18200001 15243939
-0.012938173 0.0087536834 0.18200001 15505830
-0.012148711 0.0088017806 0.18300001 16756154
-0.01128816 0.0088017806 0.18300001 16755125
-0.010427611 0.0088017806 0.18300001 15964834
-0.0095670596 0.0088017806 0.18300001 13399936
-0.0087065091 0.0088017806 0.18300001 12284283
-0.0078459587 0.0088017806 0.18300001 16766436
-0.0069854083 0.0088017806 0.18300001 16770034
-0.0061248573 0.0088017806 0.18300001 16766691
-0.0052643064 0.0088017806 0.18300001 12876936
-0.004403756 0.0088017806 0.18300001 14061462
-0.0035432056 0.0088017806 0.18300001 13206923
-0.0026826551 0.0088017806 0.18300001 12222088
-0.0018221044 0.0088017806 0.18300001 12157067
-0.00096155389 0.0088017806 0.18300001 11565443
-0.00010100334 0.0088017806 0.18300001 16769517
0.00075954717 0.0088017806 0.18300001 16769000
0.0016200979 0.0088017806 0.18300001 16770027
0.0024806485 0.0088017806 0.18300001 13208208
0.0033411989 0.0088017806 0.18300001 14260126
0.0042017493 0.0088017806 0.18300001 15378092
0.0050623002 0.0088017806 0.18300001 14918308
0.0059228512 0.0088017806 0.18300001 14523296
0.0067834011 0.0088017806 0.18300001 14129821
0.007643952 0.0088017806 0.18300001 16763087
0.0085045025 0.0088017806 0.18300001 16766687
0.0093650529 0.0088017806 0.18300001 16766687
0.010225603 0.0088017806 0.18300001 13866399
0.011086154 0.0088017806 0.18300001 14588326
0.011946704 0.0088017806 0.18300001 15179945
0.012807255 0.0088017806 0.18300001 15443369
0.013667806 0.0088017806 0.18300001 14719646
0.014528356 0.0088017806 0.18300001 14325404
0.015388906 0.0088017806 0.18300001 13405848
0.016249457 0.0088017806 0.18300001 16767970
0.017110009 0.0088017806 0.18300001 16769253
0.017970558 0.0088017806 0.18300001 16103100
0.01883111 0.0088017806 0.18300001 13864853
0.019691659 0.0088017806 0.18300001 15310502
0.020552211 0.0088017806 0.18300001 14455450
0.021412762 0.0088017806 0.18300001 14850208
0.022273311 0.0088017806 0.18300001 14982312
0.023133863 0.0088017806 0.18300001 15906498
0.023994412 0.0088017806 0.18300001 16775161
0.024854964 0.0088017806 0.18300001 16776697
0.025715515 0.0088017806 0.18300001 16773874
0.026576066 0.0088017806 0.18300001 12089725
0.027436614 0.0088017806 0.18300001 12086902
0.028297165 0.0088017806 0.18300001 12086645
0.029157715 0.0088017806 0.18300001 12942213
0.030018266 0.0088017806 0.18300001 12877190
0.030878818 0.0088017806 0.18300001 11825272
0.031739369 0.0088017806 0.18300001 10708074
0.032599919 0.0088017806 0.18300001 12749454
0.033460468 0.0088017806 0.18300001 16764372
0.034321018 0.0088017806 0.18300001 16698589
0.035181571 0.0088017806 0.18300001 16768238
0.03604212 0.0088017806 0.18300001 16626369
0.03690267 0.0088017806 0.18300001 15967914
0.037763223 0.0088017806 0.18300001 16362159
0.038623773 0.0088017806 0.18300001 16230573
0.039484326 0.0088017806 0.18300001 16229803
0.040344872 0.0088017806 0.18300001 16229803
0.041205425 0.0088017806 0.18300001 16691126
0.042065974 0.0088017806 0.18300001 16758717
0.042926524 0.0088017806 0.18300001 16297906
0.043787077 0.0088017806 0.18300001 13011594
0.044647627 0.0088017806 0.18300001 5977661
0.045259498 0.0087536834 0.18200001 8746102
0.045861967 0.0087055862 0.18100001 10853275
0.04671311 0.0087055862 0.18100001 7698034
-0.018073261 0.0096095316 0.18200001 4736841
-0.017217414 0.0096095316 0.18200001 5587268
-0.016361566 0.0096095316 0.18200001 11767185
-0.015505717 0.0096095316 0.18200001 13932696
-0.014649869 0.0096095316 0.18200001 14194072
-0.013794022 0.0096095316 0.18200001 14258068
-0.012938173 0.0096095316 0.18200001 15440553
-0.012148711 0.0096623311 0.18300001 16690620
-0.01128816 0.0096623311 0.18300001 16758980
-0.010427611 0.0096623311 0.18300001 16757436
-0.0095670596 0.0096623311 0.18300001 16757437
-0.0087065091 0.0096623311 0.18300001 15770285
-0.0078459587 0.0096623311 0.18300001 16767978
-0.0069854083 0.0096623311 0.18300001 16771316
-0.0061248573 0.0096623311 0.18300001 16770802
-0.0052643064 0.0096623311 0.18300001 14787503
-0.004403756 0.0096623311 0.18300001 15113125
-0.0035432056 0.0096623311 0.18300001 15639724
-0.0026826551 0.0096623311 0.18300001 13406100
-0.0018221044 0.0096623311 0.18300001 14656681
-0.00096155389 0.0096623311 0.18300001 16631502
-0.00010100334 0.0096623311 0.18300001 16771311
0.00075954717 0.0096623311 0.18300001 16771051
0.0016200979 0.0096623311 0.18300001 16768996
0.0024806485 0.0096623311 0.18300001 15573931
0.0033411989 0.0096623311 0.18300001 15836328
0.0042017493 0.0096623311 0.18300001 15967914
0.0050623002 0.0096623311 0.18300001 16231086
0.0059228512 0.0096623311 0.18300001 15968943
0.0067834011 0.0096623311 0.18300001 13798290
0.007643952 0.0096623311 0.18300001 15248052
0.0085045025 0.0096623311 0.18300001 16769772
0.0093650529 0.0096623311 0.18300001 16773621
0.010225603 0.0096623311 0.18300001 15773881
0.011086154 0.0096623311 0.18300001 14718365
0.011946704 0.0096623311 0.18300001 14651289
0.012807255 0.0096623311 0.18300001 14256785
0.013667806 0.0096623311 0.18300001 15375266
0.014528356 0.0096623311 0.18300001 15112607
0.015388906 0.0096623311 0.18300001 16765656
0.016249457 0.0096623311 0.18300001 16767198
0.017110009 0.0096623311 0.18300001 16102846
0.017970558 0.0096623311 0.18300001 14914974
0.01883111 0.0096623311 0.18300001 14190738
0.019691659 0.0096623311 0.18300001 13730189
0.020552211 0.0096623311 0.18300001 13993361
0.021412762 0.0096623311 0.18300001 13927568
0.022273311 0.0096623311 0.18300001 14719142
0.023133863 0.0096623311 0.18300001 14794442
0.023994412 0.0096623311 0.18300001 16776702
0.024854964 0.0096623311 0.18300001 16711675
0.025715515 0.0096623311 0.18300001 16775415
0.026576066 0.0096623311 0.18300001 14787240
0.027436614 0.0096623311 0.18300001 16494776
0.028297165 0.0096623311 0.18300001 16757178
0.029157715 0.0096623311 0.18300001 15770283
0.030018266 0.0096623311 0.18300001 15309734
0.030878818 0.0096623311 0.18300001 15244968
0.031739369 0.0096623311 0.18300001 14786986
0.032599919 0.0096623311 0.18300001 16235979
0.033460468 0.0096623311 0.18300001 16768745
0.034321018 0.0096623311 0.18300001 16769268
0.035181571 0.0096623311 0.18300001 16769269
0.03604212 0.0096623311 0.18300001 14522030
0.03690267 0.0096623311 0.18300001 16296114
0.037763223 0.0096623311 0.18300001 16362161
0.038623773 0.0096623311 0.18300001 16033194
0.039484326 0.0096623311 0.18300001 15835815
0.040344872 0.0096623311 0.18300001 16757433
0.041205425 0.0096623311 0.18300001 16759230
0.042065974 0.0096623311 0.18300001 14918308
0.042926524 0.0096623311 0.18300001 12355207
0.043787077 0.0096623311 0.18300001 10385528
0.044647627 0.0096623311 0.18300001 7758437
0.045259498 0.0096095316 0.18200001 4735558
0.045861967 0.0095567312 0.18100001 4671053
0.04671311 0.0095567312 0.18100001 4671825
-0.018073261 0.01046538 0.18200001 11578281
-0.017217414 0.01046538 0.18200001 9932173
-0.016361566 0.01046538 0.18200001 7360847
-0.015505717 0.01046538 0.18200001 10974578
-0.014649869 0.01046538 0.18200001 14391964
-0.013794022 0.01046538 0.18200001 14653599
-0.012938173 0.01046538 0.18200001 16230834
-0.012148711 0.010522882 0.18300001 16691639
-0.01128816 0.010522882 0.18300001 15967916
-0.010427611 0.010522882 0.18300001 16032942
-0.0095670596 0.010522882 0.18300001 16361139
-0.0087065091 0.010522882 0.18300001 16493495
-0.0078459587 0.010522882 0.18300001 15313334
-0.0069854083 0.010522882 0.18300001 16774142
-0.0061248573 0.010522882 0.18300001 16773627
-0.0052643064 0.010522882 0.18300001 16769260
-0.004403756 0.010522882 0.18300001 15837103
-0.0035432056 0.010522882 0.18300001 15836846
-0.0026826551 0.010522882 0.18300001 14589089
-0.0018221044 0.010522882 0.18300001 14327200
-0.00096155389 0.010522882 0.18300001 16167610
-0.00010100334 0.010522882 0.18300001 16762576
0.00075954717 0.010522882 0.18300001 16771823
0.0016200979 0.010522882 0.18300001 15838127
0.0024806485 0.010522882 0.18300001 16033194
0.0033411989 0.010522882 0.18300001 16362159
0.0042017493 0.010522882 0.18300001 16625844
0.0050623002 0.010522882 0.18300001 16363440
0.0059228512 0.010522882 0.18300001 16495285
0.0067834011 0.010522882 0.18300001 16365241
0.007643952 0.010522882 0.18300001 15575219
0.0085045025 0.010522882 0.18300001 16771318
0.0093650529 0.010522882 0.18300001 16771053
0.010225603 0.010522882 0.18300001 16762575
0.011086154 0.010522882 0.18300001 16428467
0.011946704 0.010522882 0.18300001 16033709
0.012807255 0.010522882 0.18300001 16230573
0.013667806 0.010522882 0.18300001 15638436
0.014528356 0.010522882 0.18300001 16690356
0.015388906 0.010522882 0.18300001 14916255
0.016249457 0.010522882 0.18300001 16763344
0.017110009 0.010522882 0.18300001 15442088
0.017970558 0.010522882 0.18300001 15769000
0.01883111 0.010522882 0.18300001 15045277
0.019691659 0.010522882 0.18300001 14321554
0.020552211 0.010522882 0.18300001 14190222
0.021412762 0.010522882 0.18300001 16623791
0.022273311 0.010522882 0.18300001 15771310
0.023133863 0.010522882 0.18300001 16772596
0.023994412 0.010522882 0.18300001 16776955
0.024854964 0.010522882 0.18300001 16777211
0.025715515 0.010522882 0.18300001 16774391
0.026576066 0.010522882 0.18300001 15448259
0.027436614 0.010522882 0.18300001 16166586
0.028297165 0.010522882 0.18300001 15769770
0.029157715 0.010522882 0.18300001 16493493
0.030018266 0.010522882 0.18300001 16690874
0.030878818 0.010522882 0.18300001 15178664
0.031739369 0.010522882 0.18300001 14653351
0.032599919 0.010522882 0.18300001 16235981
0.033460468 0.010522882 0.18300001 16769772
0.034321018 0.010522882 0.18300001 16770543
0.035181571 0.010522882 0.18300001 16773626
0.03604212 0.010522882 0.18300001 14852009
0.03690267 0.010522882 0.18300001 15308451
0.037763223 0.010522882 0.18300001 16361907
0.038623773 0.010522882 0.18300001 15967916
0.039484326 0.010522882 0.18300001 15113377
0.040344872 0.010522882 0.18300001 13403786
0.040980257 0.01046538 0.18200001 13142926
0.041836105 0.01046538 0.18200001 12950172
0.042691953 0.01046538 0.18200001 5192510
0.043547802 0.01046538 0.18200001 4999245
0.04440365 0.01046538 0.18200001 4868686
0.045259498 0.01046538 0.18200001 4672077
0.045861967 0.010407878 0.18100001 4541007
-0.018073261 0.011321228 0.18200001 4736841
-0.017217414 0.011321228 0.18200001 4868678
-0.016361566 0.011321228 0.18200001 6245968
-0.015505717 0.011321228 0.18200001 11636109
-0.014649869 0.011321228 0.18200001 12684426
-0.013794022 0.011321228 0.18200001 12615553
-0.012938173 0.011321228 0.18200001 13468807
-0.012148711 0.011383432 0.18300001 15177113
-0.01128816 0.011383432 0.18300001 16032422
-0.010427611 0.011383432 0.18300001 15440285
-0.0095670596 0.011383432 0.18300001 16492975
-0.0087065091 0.011383432 0.18300001 16690354
-0.0078459587 0.011383432 0.18300001 16493747
-0.0069854083 0.011383432 0.18300001 16764121
-0.0061248573 0.011383432 0.18300001 15377070
-0.0052643064 0.011383432 0.18300001 16492723
-0.004403756 0.011383432 0.18300001 16624563
-0.0035432056 0.011383432 0.18300001 16362674
-0.0026826551 0.011383432 0.18300001 15379375
-0.0018221044 0.011383432 0.18300001 14721958
-0.00096155389 0.011383432 0.18300001 15245990
-0.00010100334 0.011383432 0.18300001 15507365
0.00075954717 0.011383432 0.18300001 15638436
0.0016200979 0.011383432 0.18300001 16230571
0.0024806485 0.011383432 0.18300001 16230571
0.0033411989 0.011383432 0.18300001 15572641
0.0042017493 0.011383432 0.18300001 14849433
0.0050623002 0.011383432 0.18300001 14850203
0.0059228512 0.011383432 0.18300001 14718617
0.0067834011 0.011383432 0.18300001 15376549
0.007643952 0.011383432 0.18300001 14915998
0.0085045025 0.011383432 0.18300001 15441572
0.0093650529 0.011383432 0.18300001 14914461
0.010225603 0.011383432 0.18300001 15308703
0.011086154 0.011383432 0.18300001 15703461
0.011946704 0.011383432 0.18300001 15440287
0.012807255 0.011383432 0.18300001 15309471
0.013667806 0.011383432 0.18300001 15637666
0.014528356 0.011383432 0.18300001 15703459
0.015388906 0.011383432 0.18300001 13796234
0.016249457 0.011383432 0.18300001 13599368
0.017110009 0.011383432 0.18300001 14981021
0.017970558 0.011383432 0.18300001 15375264
0.01883111 0.011383432 0.18300001 15309473
0.019691659 0.011383432 0.18300001 15177887
0.020552211 0.011383432 0.18300001 15046299
0.021412762 0.011383432 0.18300001 15177115
0.022273311 0.011383432 0.18300001 14848150
0.023133863 0.011383432 0.18300001 14849181
0.023994412 0.011383432 0.18300001 15183543
0.024854964 0.011383432 0.18300001 16767969
0.025715515 0.011383432 0.18300001 16042963
0.026576066 0.011383432 0.18300001 16768233
0.027436614 0.011383432 0.18300001 16764897
0.028297165 0.011383432 0.18300001 16627139
0.029157715 0.011383432 0.18300001 16494781
0.030018266 0.011383432 0.18300001 16759753
0.030878818 0.011383432 0.18300001 16759240
0.031739369 0.011383432 0.18300001 16757955
0.032599919 0.011383432 0.18300001 15179691
0.033460468 0.011383432 0.18300001 15640496
0.034321018 0.011383432 0.18300001 15971514
0.035181571 0.011383432 0.18300001 16761802
0.03604212 0.011383432 0.18300001 14455195
0.03690267 0.011383432 0.18300001 14718367
0.037763223 0.011383432 0.18300001 15179175
0.038623773 0.011383432 0.18300001 13995923
0.039484326 0.011383432 0.18300001 13010309
0.040344872 0.011383432 0.18300001 13472659
0.040980257 0.011321228 0.18200001 12094867
0.041836105 0.011321228 0.18200001 5456199
0.042691953 0.011321228 0.18200001 5130829
0.043547802 0.011321228 0.18200001 4868686
0.04440365 0.011321228 0.18200001 4737870
0.045259498 0.011321228 0.18200001 4541261
0.046115346 0.011321228 0.18200001 4541261
-0.018073261 0.012177075 0.18200001 4869454
-0.017217414 0.012177075 0.18200001 5066833
-0.016361566 0.012177075 0.18200001 5000270
-0.015505717 0.012177075 0.18200001 5655375
-0.014649869 0.012177075 0.18200001 8083541
-0.013794022 0.012177075 0.18200001 11236980
-0.012938173 0.012177075 0.18200001 12353149
-0.012148711 0.012243982 0.18300001 12944516
-0.01128816 0.012243982 0.18300001 13534598
-0.010427611 0.012243982 0.18300001 13600134
-0.0095670596 0.012243982 0.18300001 13665159
-0.0087065091 0.012243982 0.18300001 14585748
-0.0078459587 0.012243982 0.18300001 14848920
-0.0069854083 0.012243982 0.18300001 15309986
-0.0061248573 0.012243982 0.18300001 15967916
-0.0052643064 0.012243982 0.18300001 16230575
-0.004403756 0.012243982 0.18300001 16362159
-0.0035432056 0.012243982 0.18300001 15837103
-0.0026826551 0.012243982 0.18300001 13931929
-0.0018221044 0.012243982 0.18300001 14327200
-0.00096155389 0.012243982 0.18300001 14259095
-0.00010100334 0.012243982 0.18300001 14914713
0.00075954717 0.012243982 0.18300001 14848148
0.0016200979 0.012243982 0.18300001 16098215
0.0024806485 0.012243982 0.18300001 15375777
0.0033411989 0.012243982 0.18300001 15047839
0.0042017493 0.012243982 0.18300001 14324888
0.0050623002 0.012243982 0.18300001 14259095
0.0059228512 0.012243982 0.18300001 14456474
0.0068204692 0.01231089 0.18400002 14126739
0.0076857223 0.01231089 0.18400002 15113377
0.0085509755 0.01231089 0.18400002 15309986
0.0094162282 0.01231089 0.18400002 15112092
0.010281481 0.01231089 0.18400002 14717334
0.011146734 0.01231089 0.18400002 14981019
0.012011987 0.01231089 0.18400002 14849433
0.01287724 0.01231089 0.18400002 14059404
0.013742493 0.01231089 0.18400002 14190218
0.014607747 0.01231089 0.18400002 13993609
0.015472999 0.01231089 0.18400002 14125197
0.016338252 0.01231089 0.18400002 12942465
0.017203506 0.01231089 0.18400002 14324118
0.018068759 0.01231089 0.18400002 14653083
0.018934011 0.01231089 0.18400002 14258841
0.019799264 0.01231089 0.18400002 14653083
0.020664519 0.01231089 0.18400002 15113375
0.021529771 0.01231089 0.18400002 15375777
0.022395024 0.01231089 0.18400002 15375262
0.023260277 0.01231089 0.18400002 15439515
0.024125529 0.01231089 0.18400002 16229805
0.024990784 0.01231089 0.18400002 16691387
0.025856037 0.01231089 0.18400002 16758721
0.026721291 0.01231089 0.18400002 16298944
0.02758654 0.01231089 0.18400002 16758982
0.028451795 0.01231089 0.18400002 16759752
0.029317047 0.01231089 0.18400002 16761037
0.030182302 0.01231089 0.18400002 16759749
0.031047555 0.01231089 0.18400002 16297145
0.031912807 0.01231089 0.18400002 16428988
0.032778062 0.01231089 0.18400002 14916519
0.033643313 0.01231089 0.18400002 14653599
0.034508567 0.01231089 0.18400002 13732497
0.035181571 0.012243982 0.18300001 13336969
0.03604212 0.012243982 0.18300001 13008776
0.037104327 0.01231089 0.18400002 12548225
0.037969578 0.01231089 0.18400002 11957369
0.038623773 0.012243982 0.18300001 12550530
0.039484326 0.012243982 0.18300001 12947085
0.040344872 0.012243982 0.18300001 9726317
0.040980257 0.012177075 0.18200001 5323845
0.041836105 0.012177075 0.18200001 4933452
0.042691953 0.012177075 0.18200001 5000272
0.043547802 0.012177075 0.18200001 4803663
0.04440365 0.012177075 0.18200001 4475468
0.045259498 0.012177075 0.18200001 4541007
0.046115346 0.012177075 0.18200001 4475468
-0.018073261 0.013032923 0.18200001 4541259
-0.017217414 0.013032923 0.18200001 4475466
-0.016361566 0.013032923 0.18200001 4541259
-0.015505717 0.013032923 0.18200001 5000270
-0.014649869 0.013032923 0.18200001 5785415
-0.013794022 0.013032923 0.18200001 10056817
-0.013009262 0.013104534 0.18300001 11303289
-0.012148711 0.013104534 0.18300001 12881292
-0.011349845 0.013176143 0.18400002 12353664
-0.010484592 0.013176143 0.18400002 12944518
-0.0096193384 0.013176143 0.18400002 13995669
-0.0087540857 0.013176143 0.18400002 13929360
-0.0078888331 0.013176143 0.18400002 14126739
-0.0070235799 0.013176143 0.18400002 13403016
-0.0061583263 0.013176143 0.18400002 14653083
-0.0052930736 0.013176143 0.18400002 14784667
-0.0044278204 0.013176143 0.18400002 15311013
-0.0035625673 0.013176143 0.18400002 15509678
-0.0026973144 0.013176143 0.18400002 13669532
-0.0018320613 0.013176143 0.18400002 12683407
-0.00096680829 0.013176143 0.18400002 13667474
-0.00010155528 0.013176143 0.18400002 14258325
0.00076369772 0.013176143 0.18400002 14784410
0.0016289508 0.013176143 0.18400002 15310754
0.0024942039 0.013176143 0.18400002 14523296
0.0033594568 0.013176143 0.18400002 12551305
0.0042247097 0.013176143 0.18400002 13274001
0.0050899629 0.013176143 0.18400002 13471380
0.0059552165 0.013176143 0.18400002 13799573
0.0068204692 0.013176143 0.18400002 13931159
0.0076857223 0.013176143 0.18400002 14193302
0.0085509755 0.013176143 0.18400002 14522267
0.0094162282 0.013176143 0.18400002 14915998
0.010281481 0.013176143 0.18400002 14783642
0.011146734 0.013176143 0.18400002 14520470
0.012011987 0.013176143 0.18400002 14125712
0.01287724 0.013176143 0.18400002 14125712
0.013742493 0.013176143 0.18400002 13665161
0.014607747 0.013176143 0.18400002 13730954
0.015472999 0.013176143 0.18400002 13468552
0.016338252 0.013176143 0.18400002 13271946
0.017203506 0.013176143 0.18400002 13075339
0.018068759 0.013176143 0.18400002 13272716
0.018934011 0.013176143 0.18400002 13667474
0.019799264 0.013176143 0.18400002 13930646
0.020664519 0.013176143 0.18400002 14653853
0.021529771 0.013176143 0.18400002 14784667
0.022395024 0.013176143 0.18400002 14850201
0.023260277 0.013176143 0.18400002 14915224
0.024125529 0.013176143 0.18400002 15441057
0.024990784 0.013176143 0.18400002 15112094
0.025856037 0.013176143 0.18400002 16231088
0.026721291 0.013176143 0.18400002 14060435
0.02758654 0.013176143 0.18400002 15639467
0.028451795 0.013176143 0.18400002 14784158
0.029317047 0.013176143 0.18400002 14323607
0.030182302 0.013176143 0.18400002 13534091
0.031047555 0.013176143 0.18400002 13139590
0.031912807 0.013176143 0.18400002 12745604
0.032778062 0.013176143 0.18400002 12548995
0.033643313 0.013176143 0.18400002 13272718
0.034508567 0.013176143 0.18400002 13601681
0.035373818 0.013176143 0.18400002 13470095
0.036239073 0.013176143 0.18400002 13272718
0.037104327 0.013176143 0.18400002 12023934
0.037969578 0.013176143 0.18400002 12616582
0.038834833 0.013176143 0.18400002 11630971
0.039484326 0.013104534 0.18300001 10778492
0.040344872 0.013104534 0.18300001 6967641
0.041205425 0.013104534 0.18300001 5064523
0.042065974 0.013104534 0.18300001 4802893
0.042691953 0.013032923 0.18200001 4672077
0.043547802 0.013032923 0.18200001 4672077
0.04440365 0.013032923 0.18200001 4475468
0.045259498 0.013032923 0.18200001 4475214
-0.013869813 0.013965084 0.18300001 6573386
-0.013009262 0.013965084 0.18300001 8148307
-0.012215097 0.014041397 0.18400002 11105912
-0.011349845 0.014041397 0.18400002 11631484
-0.010541573 0.014117707 0.185 12024959
-0.0096716173 0.014117707 0.185 12813448
-0.0088016624 0.014117707 0.185 13734550
-0.0079317065 0.014117707 0.185 13865620
-0.0070617511 0.014117707 0.185 13536142
-0.0061917952 0.014117707 0.185 13536142
-0.0053218398 0.014117707 0.185 13733521
-0.0044518844 0.014117707 0.185 14193300
-0.0035819288 0.014117707 0.185 13010827
-0.0027119736 0.014117707 0.185 12289162
-0.0018420181 0.014117707 0.185 12552336
-0.00097206264 0.014117707 0.185 13011342
-0.0001021072 0.014117707 0.185 13339024
0.00076784822 0.014117707 0.185 13996439
0.0016378037 0.014117707 0.185 13930646
0.0025077593 0.014117707 0.185 12880788
0.0033777144 0.014117707 0.185 12749202
0.0042476701 0.014117707 0.185 13010575
0.0051176255 0.014117707 0.185 13996952
0.0059875813 0.014117707 0.185 14062745
0.0068575363 0.014117707 0.185 13865366
0.0077274921 0.014117707 0.185 14456990
0.0085974475 0.014117707 0.185 13996693
0.0094674025 0.014117707 0.185 14324118
0.010337358 0.014117707 0.185 14718876
0.011207313 0.014117707 0.185 14587290
0.012077268 0.014117707 0.185 14388630
0.012947224 0.014117707 0.185 13730954
0.01381718 0.014117707 0.185 14125712
0.014687136 0.014117707 0.185 13994896
0.01555709 0.014117707 0.185 13731981
0.016427046 0.014117707 0.185 14193302
0.017297002 0.014117707 0.185 14062999
0.018166957 0.014117707 0.185 13931161
0.019036911 0.014117707 0.185 13274001
0.019906867 0.014117707 0.185 13404817
0.020776823 0.014117707 0.185 13075850
0.021646779 0.014117707 0.185 13864337
0.022516733 0.014117707 0.185 14126737
0.023386689 0.014117707 0.185 13994896
0.024256645 0.014117707 0.185 13073794
0.025126601 0.014117707 0.185 12942211
0.025996557 0.014117707 0.185 12744832
0.026866512 0.014117707 0.185 13336969
0.027736466 0.014117707 0.185 13731727
0.028606422 0.014117707 0.185 13337739
0.029476378 0.014117707 0.185 12745602
0.030346334 0.014117707 0.185 13008258
0.03121629 0.014117707 0.185 13403786
0.032086246 0.014117707 0.185 13141384
0.032956202 0.014117707 0.185 12944005
0.033826154 0.014117707 0.185 12878471
0.03469611 0.014117707 0.185 12747655
0.035566065 0.014117707 0.185 12813448
0.036436021 0.014117707 0.185 12550276
0.037305977 0.014117707 0.185 12419203
0.038175933 0.014117707 0.185 11762559
0.038834833 0.014041397 0.18400002 11502215
0.039484326 0.013965084 0.18300001 7427422
0.040344872 0.013965084 0.18300001 5261902
0.041205425 0.013965084 0.18300001 4737868
0.042065974 0.013965084 0.18300001 4737868
0.042926524 0.013965084 0.18300001 4737868
0.043787077 0.013965084 0.18300001 4672077
0.044891603 0.014041397 0.18400002 4541261
-0.015293819 0.015392736 0.19000001 4211526
-0.013945605 0.014906649 0.18400002 4932167
-0.013080351 0.014906649 0.18400002 8545893
-0.012215097 0.014906649 0.18400002 9989741
-0.011411528 0.014987663 0.185 11041144
-0.010598554 0.015068678 0.186 11369336
-0.0097238962 0.015068678 0.186 13077647
-0.008849239 0.015068678 0.186 13471891
-0.0079745799 0.015068678 0.186 14064282
-0.0070999227 0.015068678 0.186 14261148
-0.0062252646 0.015068678 0.186 14195355
-0.0053506065 0.015068678 0.186 14852515
-0.0044759484 0.015068678 0.186 14984101
-0.0036012908 0.015068678 0.186 13867935
-0.0027266329 0.015068678 0.186 11369343
-0.001851975 0.015068678 0.186 13211034
-0.00097731699 0.015068678 0.186 13472407
-0.00010265913 0.015068678 0.186 13274001
0.00077199872 0.015068678 0.186 13405585
0.0016466568 0.015068678 0.186 13142928
0.0025213147 0.015068678 0.186 13078680
0.0033959725 0.015068678 0.186 12617614
0.0042706304 0.015068678 0.186 13669272
0.0051452885 0.015068678 0.186 13733267
0.0060199467 0.015068678 0.186 14456990
0.0068946043 0.015068678 0.186 14128025
0.0077692624 0.015068678 0.186 14719392
0.0086439196 0.015068678 0.186 14456474
0.0095185777 0.015068678 0.186 14324888
0.010393236 0.015068678 0.186 13403786
0.011267894 0.015068678 0.186 14324382
0.012142551 0.015068678 0.186 14456220
0.013017209 0.015068678 0.186 14061462
0.013891867 0.015068678 0.186 13600911
0.014766525 0.015068678 0.186 13206153
0.015641183 0.015068678 0.186 14193818
0.016515842 0.015068678 0.186 14062999
0.017390499 0.015068678 0.186 13537425
0.018265158 0.015068678 0.186 13339794
0.019139815 0.015068678 0.186 13866138
0.020014472 0.015068678 0.186 13997724
0.020889131 0.015068678 0.186 12878471
0.021763789 0.015068678 0.186 13272716
0.022638446 0.015068678 0.186 13733521
0.023513105 0.015068678 0.186 13864337
0.024387762 0.015068678 0.186 13468555
0.025262421 0.015068678 0.186 12811395
0.02613708 0.015068678 0.186 13009028
0.027011737 0.015068678 0.186 13009028
0.027886393 0.015068678 0.186 13009028
0.028761052 0.015068678 0.186 12614016
0.029635709 0.015068678 0.186 12483200
0.030510368 0.015068678 0.186 12680579
0.031385027 0.015068678 0.186 13141643
0.032259684 0.015068678 0.186 13404815
0.033134341 0.015068678 0.186 12419205
0.034008998 0.015068678 0.186 11235961
0.034883656 0.015068678 0.186 11499387
0.035758317 0.015068678 0.186 11762559
0.036632974 0.015068678 0.186 12420489
0.037507631 0.015068678 0.186 12421002
0.038175933 0.014987663 0.185 10713212
0.038834833 0.014906649 0.18400002 8085352
0.039700087 0.014906649 0.18400002 4998732
0.040565338 0.014906649 0.18400002 4540491
0.040980257 0.014744621 0.18200001 4409673
0.041836105 0.014744621 0.18200001 4409673
0.043161098 0.014906649 0.18400002 4541259
-0.014172978 0.016029052 0.18700001 3947584
-0.012215097 0.015771901 0.18400002 8676194
-0.011473212 0.015943335 0.186 10450292
-0.010598554 0.015943335 0.186 12291213
-0.009776175 0.016029052 0.18700001 11303291
-0.0088968156 0.016029052 0.18700001 12421002
-0.0080174543 0.016029052 0.18700001 12814475
-0.0071380944 0.016029052 0.18700001 13669784
-0.0062587336 0.016029052 0.18700001 14261407
-0.0053793732 0.016029052 0.18700001 14064028
-0.0045000128 0.016029052 0.18700001 14130337
-0.0036206525 0.016029052 0.18700001 12420748
-0.0027412924 0.016029052 0.18700001 12091783
-0.0018619319 0.016029052 0.18700001 13341591
-0.00098257139 0.016029052 0.18700001 12748168
-0.00010321107 0.016029052 0.18700001 12484483
0.00077614927 0.016029052 0.18700001 12682377
0.0016466568 0.015943335 0.186 12551305
0.0025348703 0.016029052 0.18700001 12947094
0.0034142304 0.016029052 0.18700001 13208981
0.0042935908 0.016029052 0.18700001 14195103
0.0051729511 0.016029052 0.18700001 13996954
0.006052312 0.016029052 0.18700001 13996954
0.0069316719 0.016029052 0.18700001 14325917
0.0078110327 0.016029052 0.18700001 14391197
0.0086903926 0.016029052 0.18700001 14062747
0.009569753 0.016029052 0.18700001 12418438
0.010449113 0.016029052 0.18700001 11826301
0.011328474 0.016029052 0.18700001 13471130
0.012207834 0.016029052 0.18700001 13996702
0.013087194 0.016029052 0.18700001 13996700
0.013966555 0.016029052 0.18700001 13996702
0.014845916 0.016029052 0.18700001 12550026
0.015725276 0.016029052 0.18700001 12418438
0.016604636 0.016029052 0.18700001 12945034
0.017483996 0.016029052 0.18700001 13603477
0.018363358 0.016029052 0.18700001 13208721
0.019242717 0.016029052 0.18700001 12616584
0.020122077 0.016029052 0.18700001 13142928
0.021001438 0.016029052 0.18700001 12879754
0.0218808 0.016029052 0.18700001 12484996
0.022760158 0.016029052 0.18700001 13602194
0.023639519 0.016029052 0.18700001 13865107
0.024518881 0.016029052 0.18700001 13404556
0.025398241 0.016029052 0.18700001 13470349
0.026277602 0.016029052 0.18700001 13536142
0.027156962 0.016029052 0.18700001 13536142
0.028036321 0.016029052 0.18700001 13009798
0.028915681 0.016029052 0.18700001 12286075
0.029795041 0.016029052 0.18700001 12088955
0.030674402 0.016029052 0.18700001 12221313
0.031553764 0.016029052 0.18700001 12484998
0.032433122 0.016029052 0.18700001 12945549
0.033312485 0.016029052 0.18700001 12551051
0.034191843 0.016029052 0.18700001 11301754
0.035071205 0.016029052 0.18700001 11434107
0.035950564 0.016029052 0.18700001 11697279
0.036829926 0.016029052 0.18700001 10381935
0.037507631 0.015943335 0.186 9265251
0.038382288 0.015943335 0.186 9071985
0.039256949 0.015943335 0.186 4603204
0.039915845 0.015857618 0.185 4736589
-0.011473212 0.016817993 0.186 9003366
-0.010712517 0.016998831 0.18800001 10581113
-0.0098807337 0.017089251 0.18900001 10974839
-0.0089443922 0.016998831 0.18800001 12025729
-0.0080603287 0.016998831 0.18800001 12091522
-0.0071762661 0.016998831 0.18800001 12682889
-0.006292203 0.016998831 0.18800001 13340305
-0.0054081399 0.016998831 0.18800001 13669270
-0.0045240773 0.016998831 0.18800001 13538200
-0.0036400142 0.016998831 0.18800001 13011602
-0.0027559516 0.016998831 0.18800001 12353926
-0.0018718888 0.016998831 0.18800001 12221824
-0.0009878258 0.016998831 0.18800001 12024445
-0.000103763 0.016998831 0.18800001 12287104
0.00078029983 0.016998831 0.18800001 12419205
0.0016555098 0.016908413 0.18700001 12421518
0.0025484257 0.016998831 0.18800001 12420750
0.0034324883 0.016998831 0.18800001 13603479
0.0043165511 0.016998831 0.18800001 13602194
0.0052006142 0.016998831 0.18800001 13995669
0.0060846773 0.016998831 0.18800001 14127255
0.0069687399 0.016998831 0.18800001 13995669
0.007852803 0.016998831 0.18800001 13206155
0.0087368656 0.016998831 0.18800001 12681864
0.0096209282 0.016998831 0.18800001 12287367
0.010504992 0.016998831 0.18800001 12024195
0.011389053 0.016998831 0.18800001 12484233
0.012273116 0.016998831 0.18800001 13075598
0.01315718 0.016998831 0.18800001 14062493
0.014041243 0.016998831 0.18800001 13601942
0.014925306 0.016998831 0.18800001 12286852
0.015809368 0.016998831 0.18800001 11892861
0.016693432 0.016998831 0.18800001 12682377
0.017577494 0.016998831 0.18800001 12682377
0.018461557 0.016998831 0.18800001 12287619
0.019345619 0.016998831 0.18800001 11893375
0.020229682 0.016998831 0.18800001 11893891
0.021113746 0.016998831 0.18800001 12157063
0.021997809 0.016998831 0.18800001 12223110
0.022881871 0.016998831 0.18800001 12748684
0.023765935 0.016998831 0.18800001 12879754
0.024649998 0.016998831 0.18800001 13208460
0.02553406 0.016998831 0.18800001 13405069
0.026418123 0.016998831 0.18800001 13076104
0.027302187 0.016998831 0.18800001 12878725
0.028186247 0.016998831 0.18800001 12879495
0.02907031 0.016998831 0.18800001 12418690
0.029954374 0.016998831 0.18800001 11958652
0.030838437 0.016998831 0.18800001 11761789
0.031722501 0.016998831 0.18800001 12551305
0.032606564 0.016998831 0.18800001 12091524
0.033490628 0.016998831 0.18800001 12157317
0.034374688 0.016998831 0.18800001 12025731
0.035258751 0.016998831 0.18800001 11039349
0.035950564 0.016908413 0.18700001 10579568
0.036829926 0.016908413 0.18700001 9725802
0.037709285 0.016908413 0.18700001 9201772
0.038382288 0.016817993 0.186 5128517
-0.013862328 0.018548748 0.19500001 4736841
-0.012945347 0.018548748 0.19500001 6310989
-0.01159658 0.017882895 0.18800001 7163472
-0.010826481 0.01807314 0.19000001 8937573
-0.0099852914 0.018168261 0.19100001 9856618
-0.0090395454 0.01807314 0.19000001 11961734
-0.0081460774 0.01807314 0.19000001 12224391
-0.0072144377 0.017978016 0.18900001 12684172
-0.0063256719 0.017978016 0.18900001 12617866
-0.0054369066 0.017978016 0.18900001 12486280
-0.0045481413 0.017978016 0.18900001 12617096
-0.0036593762 0.017978016 0.18900001 12880270
-0.0027706109 0.017978016 0.18900001 12748684
-0.0018818455 0.017978016 0.18900001 12485510
-0.0009930802 0.017978016 0.18900001 12288385
-0.00010431492 0.017978016 0.18900001 13406352
0.00078445039 0.017978016 0.18900001 14393507
0.0016643627 0.017882895 0.18800001 13606046
0.0025619811 0.017978016 0.18900001 13408667
0.0034507464 0.017978016 0.18900001 13735577
0.0043395115 0.017978016 0.18900001 13866649
0.0052282768 0.017978016 0.18900001 13537171
0.0061170426 0.017978016 0.18900001 13536401
0.0070058075 0.017978016 0.18900001 13404815
0.0078945737 0.017978016 0.18900001 13601681
0.0087833386 0.017978016 0.18900001 13009546
0.0096721034 0.017978016 0.18900001 12615047
0.010560869 0.017978016 0.18900001 12681094
0.011449634 0.017978016 0.18900001 12681094
0.012338399 0.017978016 0.18900001 12812680
0.013227165 0.017978016 0.18900001 13667735
0.014115931 0.017978016 0.18900001 13536149
0.015004696 0.017978016 0.18900001 13009805
0.015893461 0.017978016 0.18900001 12352129
0.016782226 0.017978016 0.18900001 12220543
0.017670993 0.017978016 0.18900001 11892348
0.018559758 0.017978016 0.18900001 12089727
0.019448522 0.017978016 0.18900001 12156033
0.020337287 0.017978016 0.18900001 11893121
0.021226054 0.017978016 0.18900001 12157063
0.022114819 0.017978016 0.18900001 12157576
0.023003584 0.017978016 0.18900001 12157317
0.023892349 0.017978016 0.18900001 12748684
0.024781115 0.017978016 0.18900001 13011856
0.02566988 0.017978016 0.18900001 13340305
0.026558645 0.017978016 0.18900001 13603477
0.027447412 0.017978016 0.18900001 12945549
0.028336175 0.017978016 0.18900001 11366517
0.02922494 0.017978016 0.18900001 11958654
0.030113706 0.017978016 0.18900001 12288131
0.031002471 0.017978016 0.18900001 12024959
0.031891238 0.017978016 0.18900001 11696764
0.032780003 0.017978016 0.18900001 11433592
0.033668768 0.017978016 0.18900001 11631484
0.034557533 0.017978016 0.18900001 11565691
0.035446297 0.017978016 0.18900001 11040119
0.036142815 0.017882895 0.18800001 10185837
0.037026878 0.017882895 0.18800001 9529708
0.037709285 0.017787773 0.18700001 8151145
0.038588647 0.017787773 0.18700001 4538181
-0.014004506 0.019665377 0.19700001 4934220
-0.013343666 0.020064672 0.20100001 6180686
-0.011054406 0.019365903 0.19400001 8017496
-0.010089849 0.019266078 0.193 9069157
-0.0091822743 0.019266078 0.193 9330274
-0.0082318243 0.019166255 0.192 11369595
-0.007290781 0.019066432 0.19100001 11961732
-0.0063591413 0.018966608 0.19000001 12224904
-0.0054656737 0.018966608 0.19000001 12355977
-0.0045722057 0.018966608 0.19000001 12618379
-0.0036787379 0.018966608 0.19000001 12683659
-0.0027852703 0.018966608 0.19000001 13144210
-0.0018918024 0.018966608 0.19000001 12222340
-0.00099833461 0.018966608 0.19000001 12419205
-0.00010486686 0.018966608 0.19000001 12813963
0.00078860088 0.018966608 0.19000001 13012626
0.0016732158 0.018866783 0.18900001 13736862
0.0025755367 0.018966608 0.19000001 13277081
0.0034690043 0.018966608 0.19000001 13144725
0.0043624719 0.018966608 0.19000001 12749452
0.0052559399 0.018966608 0.19000001 13077647
0.0061494079 0.018966608 0.19000001 13077647
0.0070428755 0.018966608 0.19000001 12748682
0.0079363436 0.018966608 0.19000001 13142926
0.0088298116 0.018966608 0.19000001 13339792
0.0097232787 0.018966608 0.19000001 13470608
0.010616747 0.018966608 0.19000001 12877958
0.011510214 0.018966608 0.19000001 12615299
0.012403682 0.018966608 0.19000001 12417922
0.01329715 0.018966608 0.19000001 12221059
0.014190618 0.018966608 0.19000001 12484231
0.015084086 0.018966608 0.19000001 12813196
0.015977552 0.018966608 0.19000001 12681610
0.016871022 0.018966608 0.19000001 12221059
0.01776449 0.018966608 0.19000001 12352645
0.018657958 0.018966608 0.19000001 12287106
0.019551424 0.018966608 0.19000001 13077649
0.020444892 0.018966608 0.19000001 13143442
0.02133836 0.018966608 0.19000001 12552075
0.022231828 0.018966608 0.19000001 12354696
0.023125295 0.018966608 0.19000001 11696512
0.024018764 0.018966608 0.19000001 11762559
0.024912233 0.018966608 0.19000001 12552075
0.025805701 0.018966608 0.19000001 12880786
0.026699169 0.018966608 0.19000001 12617614
0.027592637 0.018966608 0.19000001 12683661
0.028486101 0.018966608 0.19000001 13012626
0.029379569 0.018966608 0.19000001 12617098
0.030273039 0.018966608 0.19000001 12156545
0.031166507 0.018966608 0.19000001 12025729
0.032059975 0.018966608 0.19000001 12026496
0.032953441 0.018966608 0.19000001 11829117
0.033846911 0.018966608 0.19000001 11499898
0.034740377 0.018966608 0.19000001 10776947
0.035633843 0.018966608 0.19000001 9725032
0.036335062 0.018866783 0.18900001 9528936
0.037026878 0.018766958 0.18800001 9268081
-0.013410052 0.021114394 0.20200001 4208182
-0.012460155 0.021114394 0.20200001 6968146
-0.011282332 0.020696288 0.19800001 7228750
-0.010246687 0.020487234 0.19600001 8543840
-0.0093250042 0.020487234 0.19600001 9069155
-0.008317573 0.02027818 0.19400001 9857642
-0.0073671238 0.020173654 0.193 10581365
-0.0064260792 0.020069126 0.192 10910330
-0.0054944404 0.019964602 0.19100001 11370881
-0.0045962702 0.019964602 0.19100001 12357004
-0.0036980996 0.019964602 0.19100001 12356490
-0.0027999296 0.019964602 0.19100001 12224391
-0.0019017593 0.019964602 0.19100001 12552586
-0.001003589 0.019964602 0.19100001 12749452
-0.00010541879 0.019964602 0.19100001 12683659
0.00079275144 0.019964602 0.19100001 12881553
0.0016820688 0.019860074 0.19000001 13146008
0.0025890921 0.019964602 0.19100001 12356754
0.0034872622 0.019964602 0.19100001 11763592
0.0043854327 0.019964602 0.19100001 11829381
0.005283603 0.019964602 0.19100001 11763588
0.0061817733 0.019964602 0.19100001 12354955
0.0070799435 0.019964602 0.19100001 11696512
0.0079781143 0.019964602 0.19100001 11893121
0.0088762837 0.019964602 0.19100001 12418692
0.0097744539 0.019964602 0.19100001 13404817
0.010672624 0.019964602 0.19100001 13535890
0.011570795 0.019964602 0.19100001 13141645
0.012468965 0.019964602 0.19100001 12879243
0.013367135 0.019964602 0.19100001 11432056
0.014265305 0.019964602 0.19100001 11761275
0.015163477 0.019964602 0.19100001 12747655
0.016061645 0.019964602 0.19100001 13208719
0.016959816 0.019964602 0.19100001 13142928
0.017857987 0.019964602 0.19100001 12353412
0.018756157 0.019964602 0.19100001 12880270
0.019654326 0.019964602 0.19100001 13143442
0.020552497 0.019964602 0.19100001 12090754
0.021450669 0.019964602 0.19100001 11893375
0.022348838 0.019964602 0.19100001 12024961
0.023247007 0.019964602 0.19100001 12156547
0.024145178 0.019964602 0.19100001 11828865
0.02504335 0.019964602 0.19100001 12157830
0.025941519 0.019964602 0.19100001 11828865
0.02683969 0.019964602 0.19100001 11960451
0.027737861 0.019964602 0.19100001 11960451
0.028636029 0.019964602 0.19100001 11894658
0.0295342 0.019964602 0.19100001 12289414
0.0305917 0.020069126 0.192 12355207
0.031494573 0.020069126 0.192 11105140
0.032397445 0.020069126 0.192 10316394
0.033300318 0.020069126 0.192 10447728
0.03420319 0.020069126 0.192 9987690
0.034923222 0.019964602 0.19100001 9725802
0.035821389 0.019964602 0.19100001 9792878
-0.013476439 0.02217352 0.20300001 2762281
-0.012521839 0.02217352 0.20300001 6442575
-0.011453277 0.021955062 0.20100001 7229263
-0.010403524 0.021736605 0.19900002 8215645
-0.009467734 0.021736605 0.19900002 8412254
-0.0084461952 0.021518147 0.19700001 8740190
-0.0074434676 0.021299688 0.19500001 9200995
-0.006493018 0.021190459 0.19400001 9989741
-0.0055519734 0.021081228 0.193 10647671
-0.0046443981 0.021081228 0.193 11304316
-0.0037368231 0.021081228 0.193 12093318
-0.0028292481 0.021081228 0.193 11632767
-0.001921673 0.021081228 0.193 11500668
-0.0010140978 0.021081228 0.193 12026244
-0.00010597071 0.020971999 0.192 12421002
0.00079690194 0.020971999 0.192 11697795
0.0016997746 0.020971999 0.192 11238275
0.0026026473 0.020971999 0.192 10911622
0.0035055198 0.020971999 0.192 11041925
0.0044083926 0.020971999 0.192 10515581
0.0053112651 0.020971999 0.192 9792112
0.0062141381 0.020971999 0.192 10909306
0.0071170107 0.020971999 0.192 11696766
0.0080198841 0.020971999 0.192 12353926
0.0089227557 0.020971999 0.192 12484998
0.0098256283 0.020971999 0.192 12419205
0.010728502 0.020971999 0.192 12550278
0.011631373 0.020971999 0.192 13208208
0.012534246 0.020971999 0.192 12813450
0.013437119 0.020971999 0.192 12156033
0.014339992 0.020971999 0.192 12945549
0.015242865 0.020971999 0.192 12879754
0.016145736 0.020971999 0.192 12090754
0.01704861 0.020971999 0.192 12353926
0.017951483 0.020971999 0.192 12814477
0.018854355 0.020971999 0.192 12485512
0.019757228 0.020971999 0.192 12288133
0.020660101 0.020971999 0.192 12288133
0.021562973 0.020971999 0.192 12157317
0.022465847 0.020971999 0.192 12157317
0.023368718 0.020971999 0.192 11959938
0.024271591 0.020971999 0.192 11631486
0.025174465 0.020971999 0.192 11631232
0.026077338 0.020971999 0.192 12093066
0.02698021 0.020971999 0.192 12290699
0.028028307 0.021081228 0.193 11961734
0.028935881 0.021081228 0.193 11501183
0.029843457 0.021081228 0.193 10579568
0.030751033 0.021081228 0.193 10908533
0.031658608 0.021081228 0.193 10579568
0.032566182 0.021081228 0.193 10711413
0.03347376 0.021081228 0.193 10317171
0.034381334 0.021081228 0.193 9726317
0.035106063 0.020971999 0.192 9463915
0.035821389 0.020862771 0.19100001 8873575
-0.013476439 0.02312812 0.20300001 2237736
-0.012583523 0.023242053 0.20400001 3681071
-0.01156724 0.02312812 0.20300001 6441802
-0.010560361 0.02301419 0.20200001 7097679
-0.0096104639 0.02301419 0.20200001 7689816
-0.0086176917 0.022900257 0.20100001 7820117
-0.0075579826 0.022558464 0.19800001 8412254
-0.0065264869 0.022216668 0.19500001 9398122
-0.0056095067 0.022216668 0.19500001 10055280
-0.004692527 0.022216668 0.19500001 11634053
-0.0037755468 0.022216668 0.19500001 11897223
-0.0028585668 0.022216668 0.19500001 12093832
-0.0019415867 0.022216668 0.19500001 11501695
-0.0010246066 0.022216668 0.19500001 11566463
-0.00010707458 0.022102736 0.19400001 12158600
0.00080520299 0.022102736 0.19400001 11829381
0.0017263338 0.022216668 0.19500001 11501445
0.0026297583 0.022102736 0.19400001 11174794
0.0035420358 0.022102736 0.19400001 9794425
0.0044543133 0.022102736 0.19400001 9925241
0.0053665913 0.022102736 0.19400001 9333104
0.0062788692 0.022102736 0.19400001 11107970
0.0071911463 0.022102736 0.19400001 12026760
0.0081034247 0.022102736 0.19400001 12617868
0.0090157017 0.022102736 0.19400001 12617868
0.0099279787 0.022102736 0.19400001 11695996
0.010840257 0.022102736 0.19400001 11827328
0.011752534 0.022102736 0.19400001 11893121
0.012664812 0.022102736 0.19400001 11761535
0.01357709 0.022102736 0.19400001 11629949
0.014489368 0.022102736 0.19400001 12353158
0.015401646 0.022102736 0.19400001 12222856
0.016313922 0.022102736 0.19400001 11236215
0.017226201 0.022102736 0.19400001 12748682
0.018138478 0.022102736 0.19400001 12748682
0.019050756 0.022102736 0.19400001 12551303
0.019963032 0.022102736 0.19400001 12157315
0.020875311 0.022102736 0.19400001 11960451
0.021787588 0.022102736 0.19400001 12026244
0.022699866 0.022102736 0.19400001 11499898
0.023612143 0.022102736 0.19400001 11434105
0.02452442 0.022102736 0.19400001 10908279
0.025436699 0.022102736 0.19400001 10382452
0.026348976 0.022102736 0.19400001 10053485
0.027261255 0.022102736 0.19400001 10185585
0.028173532 0.022102736 0.19400001 11238273
0.029085808 0.022102736 0.19400001 11172478
0.029998086 0.022102736 0.19400001 10842999
0.030910363 0.022102736 0.19400001 10448755
0.03182264 0.022102736 0.19400001 9857388
0.032734919 0.022102736 0.19400001 9988974
0.033647198 0.022102736 0.19400001 9726317
0.034381334 0.021988804 0.193 9267049
0.035106063 0.021874873 0.192 8479330
-0.012645207 0.02431999 0.20500001 2104353
-0.011681203 0.02431999 0.20500001 5522245
-0.010717198 0.02431999 0.20500001 6441802
-0.0097531937 0.02431999 0.20500001 6769997
-0.0087463139 0.024201356 0.20400001 7097677
-0.0077106687 0.023964087 0.20200001 7360336
-0.0065934253 0.023370918 0.19700001 8214875
-0.0056670406 0.023370918 0.19700001 8807010
-0.0047647199 0.023489552 0.19800001 9135461
-0.0038142703 0.023370918 0.19700001 10582394
-0.0028878856 0.023370918 0.19700001 10976636
-0.0019615004 0.023370918 0.19700001 11502467
-0.0010298609 0.023252282 0.19600001 11304318
